ply
format ascii 1.0
element vertex 1234
property float x
property float y
property float z
property uchar red
property uchar green
property uchar blue
end_header
-2.844515 -1.165163 -0.465954 190 26 25
-2.865061 -0.719750 -0.218349 180 28 40
-2.855847 -0.512385 -0.234772 182 65 96
-2.852207 -0.142681 -0.207752 177 45 63
-2.862044 0.954223 -0.228214 181 50 63
-2.865326 1.362831 -0.057606 181 32 44
-2.895028 2.138675 0.096306 182 49 68
-2.895502 3.166065 0.230209 176 23 35
-2.858547 3.858784 -0.196953 183 34 40
-2.961526 4.261897 0.914700 180 41 46
-2.952601 4.517199 0.687695 171 47 43
-2.844355 -1.246389 -0.391582 192 34 31
-2.856125 -0.327452 -0.202068 180 67 88
-2.849080 0.001872 -0.190880 188 59 86
-2.849272 0.121847 -0.209370 185 57 75
-2.842351 0.162662 -0.231777 182 53 76
-2.850166 0.492221 -0.119213 186 62 83
-2.866959 1.222862 -0.140297 185 32 36
-2.872722 1.681778 0.047798 180 33 49
-2.883357 2.682729 0.175816 180 23 35
-2.887564 2.976429 0.240967 179 27 41
-2.894769 4.762315 0.347088 166 62 51
-2.900234 5.272281 0.353130 160 83 80
-2.907169 5.363719 0.446033 158 87 78
-2.834047 -0.856243 -0.254620 184 19 25
-2.833570 0.334898 -0.176586 180 60 88
-2.835848 0.663086 -0.150547 189 62 71
-2.827800 0.785515 -0.186584 183 50 67
-2.848814 1.886981 0.024448 182 27 33
-2.841504 4.032951 -0.023823 183 33 44
-2.885887 4.685414 0.305069 174 60 47
-2.894780 5.198931 0.503948 163 78 65
-2.798435 -1.552204 -0.472469 194 89 111
-2.804500 -0.553904 -0.249619 183 73 112
-2.825919 0.073051 -0.176311 184 51 75
-2.830198 2.235554 0.066479 181 29 44
-2.830083 2.320565 0.062496 172 22 35
-2.836290 2.388370 0.094276 176 20 30
-2.846500 2.702808 0.198128 180 24 32
-2.843879 3.230130 0.273689 177 32 43
-2.795867 0.308701 -0.208721 181 57 85
-2.806555 1.474096 0.011364 183 33 48
-2.840584 2.754890 0.213116 177 30 44
-2.811160 3.369668 0.052597 177 40 66
-2.808668 3.572923 -0.036652 189 98 148
-2.916768 4.389662 1.174606 178 43 42
-2.860740 5.277913 0.459145 165 84 82
-2.752011 -1.426833 -0.483757 201 95 130
-2.764743 -0.658967 -0.201962 182 45 65
-2.804925 1.834651 0.045132 182 27 34
-2.821168 3.096921 0.298180 178 21 32
-2.807530 3.240179 0.220444 182 27 41
-2.851178 4.519866 0.644855 174 48 43
-2.845428 4.850140 0.513489 170 61 53
-2.808127 4.911763 0.139854 167 67 62
-2.758191 -1.200112 -0.329800 188 30 22
-2.749974 -1.040660 -0.259926 188 19 21
-2.759377 -0.892290 -0.236794 187 21 27
-2.777802 3.680873 -0.076782 184 82 122
-2.757307 3.851059 -0.205208 183 35 47
-2.808606 4.606926 0.341881 171 57 52
-2.799171 4.988680 0.180561 164 72 65
-2.816138 5.094019 0.408203 164 74 73
-2.820430 5.164187 0.412769 159 72 79
-2.729805 -1.132035 -0.348537 193 33 20
-2.740564 -0.759257 -0.258614 182 58 77
-2.750805 -0.484327 -0.247353 185 78 110
-2.736790 -0.151383 -0.200817 195 76 79
-2.751741 0.700061 -0.179695 188 62 71
-2.741420 0.929310 -0.274406 186 52 77
-2.730727 1.204208 -0.228630 183 30 42
-2.746061 1.647224 -0.115601 180 20 31
-2.741792 1.723739 -0.152874 179 21 33
-2.767744 2.296274 0.087109 180 32 52
-2.768550 2.502770 0.071781 182 22 30
-2.796343 3.086244 0.277622 178 17 29
-2.757932 3.423484 0.045406 175 43 66
-2.837202 4.425375 0.927681 177 46 43
-2.726475 0.599466 -0.233131 179 44 58
-2.734928 1.601499 -0.103676 180 22 39
-2.732343 1.755488 -0.137363 181 19 32
-2.746029 2.582386 0.097103 177 20 40
-2.740759 3.920987 -0.004532 183 34 39
-2.814932 4.137057 0.966473 182 36 43
-2.694598 -1.505740 -0.441338 192 99 135
-2.702775 -1.231445 -0.346691 195 37 28
-2.718548 0.079541 -0.124142 183 72 99
-2.705787 1.146555 -0.237926 186 32 41
-2.729167 2.242039 0.075424 182 30 45
-2.721809 2.643961 0.081379 174 33 39
-2.732833 2.782934 0.137936 180 23 31
-2.757670 3.056967 0.256664 181 18 27
-2.728702 3.379593 0.036579 175 32 58
-2.773819 4.655770 0.486652 173 53 46
-2.776771 4.765566 0.649273 170 58 50
-2.775578 5.379177 0.648705 158 88 84
-2.668620 -1.552219 -0.453377 191 88 107
-2.697075 -1.085541 -0.169106 190 32 23
-2.690681 -0.983211 -0.230038 186 23 17
-2.694025 -0.613535 -0.194077 183 55 85
-2.700959 -0.368576 -0.163467 182 36 49
-2.696195 -0.253943 -0.153160 184 47 54
-2.691806 1.210274 -0.244431 182 30 33
-2.689390 1.417755 -0.185108 185 28 41
-2.704244 1.866733 -0.036186 177 20 26
-2.708712 2.128733 0.049332 182 33 55
-2.707456 2.438553 0.081627 180 18 31
-2.876639 4.459524 1.918667 180 43 41
-2.746174 4.576500 0.469357 173 49 41
-2.755730 4.864047 0.563915 166 62 61
-2.682771 -0.040185 -0.159374 178 55 81
-2.664177 0.902377 -0.360802 180 35 54
-2.669409 1.113358 -0.312614 184 37 51
-2.680343 1.271690 -0.153332 183 32 42
-2.677425 1.623556 -0.199936 179 23 30
-2.681511 3.570319 -0.018883 185 112 165
-2.698251 3.952852 0.056442 184 37 36
-2.707906 4.984722 0.166492 165 74 72
-2.663305 -0.766143 -0.234081 183 56 77
-2.653820 0.408163 -0.183475 184 57 76
-2.650356 0.810162 -0.373402 179 34 61
-2.633033 1.014328 -0.385406 186 38 50
-2.644181 1.156963 -0.259750 182 34 47
-2.654860 1.331096 -0.286301 178 26 41
-2.662438 1.406077 -0.226936 184 24 39
-2.658541 1.460242 -0.175961 180 29 37
-2.671556 1.785883 -0.166855 177 22 27
-2.690639 2.367817 0.114853 179 23 38
-2.692947 3.241288 0.192184 177 26 44
-2.687136 3.356323 0.093021 174 32 46
-2.671725 3.675977 -0.028805 181 44 72
-2.718310 5.288783 0.527828 161 83 71
-2.627989 -1.442835 -0.435432 185 42 57
-2.617238 -1.306127 -0.424671 196 40 29
-2.627752 -1.180877 -0.368080 192 33 25
-2.629335 0.243886 -0.306778 186 58 71
-2.648731 0.506999 -0.182938 181 43 67
-2.631377 0.701559 -0.244202 180 50 64
-2.623000 0.934857 -0.342461 179 42 58
-2.640072 1.531790 -0.157963 181 21 36
-2.672299 2.875563 0.242920 182 28 44
-2.678139 2.973901 0.285210 179 24 36
-2.766919 4.357707 1.293308 180 39 38
-2.731998 4.492614 1.000076 180 43 39
-2.655295 5.009001 0.112164 163 74 72
-2.692647 5.215128 0.505478 159 79 75
-2.619413 1.060427 -0.292690 182 40 56
-2.618181 1.103428 -0.267376 185 30 49
-2.625019 1.660879 -0.128502 178 21 28
-2.604033 3.848943 -0.265194 182 36 41
-2.622797 3.957874 -0.158493 183 34 41
-2.665840 4.212986 0.489922 178 41 42
-2.716594 4.576108 0.985317 175 49 41
-2.679058 4.647961 0.490356 170 52 42
-2.687796 4.817180 0.632198 168 64 55
-2.605783 -0.316279 -0.139286 179 39 46
-2.598614 0.774348 -0.286690 182 43 62
-2.609858 1.987932 -0.015968 176 22 30
-2.626980 2.244280 0.116585 180 25 28
-2.635131 2.330916 0.136871 177 32 35
-2.629890 2.644474 0.129265 179 29 48
-2.638091 3.125761 0.285522 176 22 40
-2.607689 3.739584 -0.064972 185 33 45
-2.669470 4.190138 0.535034 179 41 41
-2.659499 5.201068 0.398094 160 81 77
-2.568757 -1.589647 -0.431000 190 76 92
-2.581350 -0.961970 -0.254486 184 27 22
-2.594081 -0.253873 -0.123688 178 51 54
-2.601104 0.016442 -0.147255 177 50 69
-2.586469 1.321847 -0.149128 182 23 33
-2.595846 1.470945 -0.083359 177 27 38
-2.643370 4.096946 0.405071 179 41 42
-2.690346 4.448723 1.028114 179 40 45
-2.666444 4.632416 0.861271 172 49 43
-2.601480 4.912302 -0.046120 163 62 71
-2.613384 5.019167 0.000439 162 80 68
-2.629856 5.302175 0.289700 158 89 80
-2.574143 0.354251 -0.215794 173 30 48
-2.560983 1.063129 -0.274563 175 39 51
-2.546462 1.749550 -0.370216 180 21 32
-2.589561 2.110204 0.036793 186 26 41
-2.591803 2.605745 0.086647 177 27 36
-2.585471 3.593960 0.022682 176 60 99
-2.566675 3.845073 -0.245243 186 37 41
-2.669904 4.557529 1.092178 177 44 47
-2.675444 4.588850 1.154110 172 48 43
-2.647080 4.849164 0.859310 164 61 57
-2.554498 -1.223639 -0.241726 193 30 24
-2.545490 -1.043930 -0.271042 188 30 23
-2.552583 0.524341 -0.197914 183 39 66
-2.552404 1.323633 -0.096169 184 23 36
-2.548974 1.783938 -0.263168 177 20 31
-2.534220 1.812351 -0.227905 176 18 30
-2.564979 2.174963 0.079475 179 26 36
-2.562854 3.279412 0.059731 177 36 53
-2.618186 4.704594 0.709755 173 55 48
-2.512144 -1.486661 -0.415154 187 82 103
-2.522322 -1.373644 -0.418591 184 27 26
-2.535959 -0.721166 -0.168133 184 49 67
-2.538944 -0.666903 -0.157108 181 43 54
-2.534425 -0.634689 -0.178410 181 50 56
-2.542889 -0.123623 -0.193119 181 74 94
-2.558066 2.374213 0.144264 175 30 45
-2.543759 3.185966 0.116959 171 26 41
-2.550328 3.421548 0.025879 182 87 116
-2.614051 4.659454 0.813007 173 53 43
-2.576001 4.911821 0.340511 163 64 57
-2.568753 5.207389 0.230057 157 90 73
-2.498963 -1.176552 -0.416389 191 36 31
-2.520479 -0.853077 -0.176311 163 16 21
-2.514150 -0.435844 -0.158272 181 69 93
-2.519856 0.804008 -0.137768 183 40 60
-2.516855 1.092892 -0.217358 182 29 44
-2.553340 2.936612 0.281876 180 25 39
-2.553365 3.027900 0.278942 181 20 30
-2.531284 3.490931 0.005512 180 62 97
-2.520800 3.737040 -0.073009 179 32 45
-2.606560 4.497698 0.932014 172 46 43
-2.486462 -1.254665 -0.396294 193 37 25
-2.509317 0.058574 -0.130421 182 55 71
-2.513376 0.716450 -0.133678 184 39 46
-2.496493 1.340125 -0.106388 180 24 35
-2.504911 1.883943 -0.077335 177 19 33
-2.509834 4.151592 0.037560 183 41 35
-2.555490 4.690745 0.618649 169 46 52
-2.576344 4.855047 0.761913 168 65 59
-2.485472 -0.513338 -0.185448 190 85 114
-2.490232 -0.294268 -0.157413 180 50 60
-2.491093 1.271646 -0.033630 184 21 31
-2.460951 1.633249 -0.309208 178 23 30
-2.479203 1.756287 -0.329090 173 15 32
-2.505795 1.973231 -0.023506 178 16 25
-2.511302 2.112955 0.073292 176 21 30
-2.512243 2.535671 0.147106 178 20 32
-2.501919 2.585794 0.099503 179 24 37
-2.565943 4.482103 0.945515 173 42 42
-2.532601 4.985672 0.305302 162 72 66
-2.462063 0.185658 -0.221649 186 59 54
-2.474614 0.711228 -0.076931 184 41 47
-2.447798 0.943063 -0.259121 182 31 44
-2.469684 1.105547 -0.184578 183 33 42
-2.496836 2.260669 0.128544 177 22 34
-2.501881 2.495698 0.144108 181 24 41
-2.501379 2.937493 0.279121 179 21 34
-2.465048 3.952757 -0.157761 182 42 40
-2.489155 4.166606 0.035419 180 42 36
-2.441451 -1.575016 -0.420612 193 103 137
-2.442576 -1.083744 -0.219254 184 29 25
-2.455485 -0.031816 -0.123398 181 59 74
-2.464822 0.401625 -0.139969 184 55 73
-2.457245 0.533447 -0.074009 181 48 75
-2.435728 1.406154 -0.160912 181 24 31
-2.447636 1.500731 -0.215260 179 24 28
-2.466220 2.145314 0.054142 174 20 24
-2.478395 3.155794 0.242573 176 25 39
-2.485614 4.300537 0.370617 178 45 39
-2.543938 4.915217 1.026726 164 64 59
-2.418998 -1.253856 -0.361019 192 29 23
-2.433026 -0.704204 -0.144924 184 44 53
-2.447648 0.557074 -0.035759 185 49 63
-2.430867 1.045996 -0.219730 186 31 38
-2.432286 1.549900 -0.253376 181 28 33
-2.453145 2.717519 0.135658 179 16 33
-2.460931 2.784165 0.179924 175 26 43
-2.453824 3.243731 0.115673 180 42 58
-2.559478 4.639436 1.403519 173 46 44
-2.526454 5.006876 0.931904 165 68 70
-2.506880 5.348128 0.606510 156 90 80
-2.406265 -1.455522 -0.399429 192 58 73
-2.395942 -1.334236 -0.400757 197 33 31
-2.409660 1.810302 -0.352390 183 17 29
-2.433444 2.393380 0.096031 180 26 38
-2.393852 3.845198 -0.264065 183 37 41
-2.441952 4.098845 0.291969 177 35 46
-2.386388 -1.061502 -0.312283 186 26 24
-2.413223 -0.025525 -0.047424 188 70 84
-2.417230 0.676094 0.071499 184 47 67
-2.399591 1.438150 -0.290501 182 19 27
-2.420341 2.588411 0.085899 180 23 34
-2.421397 2.632603 0.027893 179 23 29
-2.410082 3.377769 0.011204 186 90 123
-2.422542 3.541997 0.007263 187 74 116
-2.471478 5.117484 0.706535 160 83 81
-2.493214 5.317994 1.027271 158 88 79
-2.385648 -0.878589 -0.122555 186 21 27
-2.390912 0.098804 -0.041740 181 61 73
-2.399441 0.481941 0.047825 186 42 55
-2.386474 1.287944 -0.031834 186 22 31
-2.391388 2.061539 -0.053833 180 29 40
-2.401001 3.062099 0.194321 179 32 50
-2.466906 4.751748 0.956383 173 55 56
-2.465559 4.985149 1.053879 166 74 66
-2.354798 -0.945791 -0.198460 185 26 22
-2.367056 -0.690859 -0.130798 184 38 48
-2.361450 -0.613057 -0.108002 172 38 69
-2.375438 0.564460 0.035488 184 55 73
-2.358292 1.174403 -0.209850 180 31 38
-2.358168 1.986266 -0.217018 179 19 24
-2.383257 2.216004 0.108490 181 17 27
-2.373310 2.709304 0.097599 178 22 35
-2.381673 2.800947 0.204651 179 27 45
-2.374868 3.786197 -0.037983 186 35 43
-2.399618 4.062629 0.278076 180 39 47
-2.448913 4.510589 0.942135 175 49 40
-2.428573 5.153418 0.695221 160 83 80
-2.326604 -1.256950 -0.391087 189 29 26
-2.334773 -1.120265 -0.424866 188 26 23
-2.351177 -0.861299 -0.114315 185 21 30
-2.350623 -0.803588 -0.066067 185 25 30
-2.343955 -0.200728 -0.096352 180 45 51
-2.366844 -0.034655 -0.036705 182 57 79
-2.355269 0.267350 -0.037952 182 60 72
-2.341548 0.908250 -0.100857 180 37 53
-2.333407 1.110094 -0.200100 179 24 30
-2.331453 1.341163 -0.267365 178 23 27
-2.334985 1.705144 -0.376137 178 17 24
-2.370607 3.117674 0.194324 178 28 40
-2.356604 3.707356 -0.167244 173 35 43
-2.332721 3.805532 -0.325989 180 37 36
-2.442958 4.697756 1.053993 170 54 51
-2.420816 5.217165 0.776958 160 83 75
-2.327939 1.837654 -0.354839 178 26 32
-2.338018 2.412647 0.066570 178 26 41
-2.354923 2.589840 0.088341 176 20 36
-2.345972 2.684894 0.026535 178 22 33
-2.419191 4.655972 1.131104 171 54 43
-2.421612 4.835238 1.142941 167 59 55
-2.421445 5.123159 1.177597 165 74 68
-2.291383 -1.523596 -0.466003 194 123 165
-2.294729 -1.364162 -0.446354 192 24 24
-2.320252 -0.999896 -0.273537 185 27 16
-2.308679 -0.339455 -0.074322 187 60 67
-2.328994 0.312071 0.001583 180 51 74
-2.323047 0.419152 0.024151 184 47 52
-2.294727 1.389535 -0.318943 178 23 26
-2.303199 3.877962 -0.161865 181 37 32
-2.336329 4.167932 0.261978 177 45 44
-2.363011 4.383259 0.588703 174 44 38
-2.375299 4.466627 0.740719 171 48 39
-2.292129 -1.229020 -0.348190 189 35 23
-2.289385 -1.059513 -0.384132 184 22 20
-2.295779 -0.655990 -0.161922 191 70 85
-2.297779 -0.076912 0.044762 179 62 86
-2.301582 0.518400 0.049545 183 51 69
-2.290136 1.248510 -0.174583 184 20 29
-2.281520 1.551303 -0.342552 180 22 31
-2.316617 2.171780 0.004547 180 21 24
-2.322593 2.474616 0.115917 176 20 32
-2.326138 3.171126 0.129070 178 34 56
-2.292836 3.669760 -0.193554 183 40 44
-2.369186 4.438075 0.754307 172 46 42
-2.391951 5.002475 1.190685 165 73 69
-2.275189 -0.864614 -0.120663 182 28 25
-2.303830 0.413417 0.066242 179 51 58
-2.298262 0.754341 0.044662 184 43 60
-2.284284 2.306872 -0.055138 181 25 38
-2.312878 2.912512 0.288200 181 28 38
-2.290839 3.473335 -0.001587 179 72 98
-2.309374 4.222578 0.316879 180 48 45
-2.349637 5.263519 0.803413 159 85 78
-2.261123 0.876274 -0.137108 180 32 51
-2.264224 0.898437 -0.154659 178 36 50
-2.243459 1.146679 -0.234238 181 25 32
-2.278220 2.533310 0.071808 179 24 33
-2.274504 2.638995 -0.104866 180 20 27
-2.264445 3.853223 -0.079895 183 41 34
-2.338215 4.765720 0.984802 169 62 66
-2.336858 5.056555 1.052040 164 73 70
-2.936109 6.997713 10.409279 155 92 81
-2.255038 -0.430565 -0.010941 182 37 52
-2.254462 -0.135580 0.078533 178 69 90
-2.260994 0.003551 0.149681 178 53 74
-2.224907 1.741809 -0.369755 179 20 26
-2.247019 1.986341 -0.301369 177 29 42
-2.251519 3.302792 0.014309 184 97 138
-2.325237 4.575821 0.991707 169 52 50
-2.215978 -1.510019 -0.344521 193 115 157
-2.219519 -1.181669 -0.257160 187 36 25
-2.239042 -0.961810 -0.086842 184 24 24
-2.233912 0.112605 0.009315 185 63 78
-2.229997 0.521790 0.051056 181 54 81
-2.217521 1.503747 -0.358109 180 19 24
-2.242222 2.105812 -0.094593 176 20 28
-2.228524 2.290514 -0.133457 178 19 36
-2.249338 2.517159 0.057556 179 25 37
-2.237974 2.687814 0.034836 178 23 34
-2.251147 3.095390 0.164398 178 35 62
-2.230723 3.721747 -0.124004 179 35 46
-2.244279 4.039537 0.261192 179 41 50
-2.310926 5.096452 0.992496 158 84 71
-2.264896 5.152058 0.451252 156 84 75
-2.231006 -0.229487 0.146820 178 42 66
-2.215038 0.233793 0.004745 185 59 73
-2.227131 0.424697 0.077354 178 45 64
-2.191583 1.219750 -0.263477 185 14 26
-2.198952 2.162737 -0.215950 180 23 32
-2.233748 2.814680 0.288208 174 25 43
-2.211710 -0.273407 0.160950 184 47 58
-2.206079 0.333805 0.075443 182 55 73
-2.187109 1.049424 -0.211880 180 28 33
-2.178668 2.347838 -0.298809 178 31 44
-2.216018 3.087505 0.148048 174 35 62
-2.208856 3.863835 0.013615 181 38 42
-2.253317 4.427955 0.795040 174 50 46
-2.274734 4.835184 0.971325 165 62 54
-2.271302 4.916974 0.917168 165 71 65
-2.186625 -0.725601 0.105484 181 30 44
-2.179550 0.665064 0.010044 183 30 55
-2.154085 1.087258 -0.220257 181 25 34
-2.152675 1.281350 -0.383736 183 20 22
-2.150695 1.409611 -0.385727 181 14 30
-2.175925 2.570766 0.130688 178 23 32
-2.169467 3.585845 -0.136032 179 37 51
-2.173612 3.746226 -0.129715 182 39 49
-2.193350 4.003110 0.259113 175 44 46
-2.224964 5.261843 0.728687 154 86 75
-2.171393 -0.851401 0.030453 183 25 22
-2.172660 -0.198634 0.119823 180 63 89
-2.179983 0.543299 0.045250 183 41 59
-2.173455 0.767793 0.052052 185 39 58
-2.141612 1.830838 -0.333824 181 35 58
-2.149670 2.001895 -0.380878 184 23 29
-2.156199 2.220629 -0.253635 179 24 42
-2.178142 2.636680 0.142014 181 26 35
-2.167764 2.847551 0.054543 182 29 50
-2.149268 3.668846 -0.165768 181 39 38
-2.237263 4.594872 1.024471 170 55 53
-2.234612 4.945313 0.975998 166 70 71
-2.211243 5.130713 0.546165 156 86 81
-2.146533 -0.963006 0.073906 186 24 24
-2.118671 1.148376 -0.386913 182 18 29
-2.127088 1.610091 -0.292953 180 20 28
-2.130533 1.694678 -0.331303 181 29 41
-2.152986 2.475095 0.021297 176 24 24
-2.147557 3.258226 0.012711 184 82 120
-2.142106 3.383206 -0.043488 179 78 118
-2.135461 3.474368 -0.091808 183 72 104
-2.132971 3.619802 -0.208321 179 43 54
-2.133069 3.840490 -0.072933 175 41 42
-2.148601 3.962211 0.122845 175 42 40
-2.226059 4.687164 1.067501 168 61 50
-2.213323 5.097983 1.054638 159 77 73
-2.102133 -1.584454 -0.424355 184 85 102
-2.092672 -1.151472 -0.402645 186 31 22
-2.090693 -1.070380 -0.458122 189 25 24
-2.141058 -0.489518 0.130089 180 44 59
-2.135212 -0.324752 0.225456 184 30 38
-2.136209 0.044452 0.123093 178 53 77
-2.121029 0.842340 -0.127918 183 29 35
-2.109907 0.972236 -0.174320 181 26 35
-2.091967 1.208818 -0.579479 180 17 30
-2.121326 1.517547 -0.273525 181 24 37
-2.113835 1.764630 -0.274010 182 31 45
-2.189955 4.434054 0.848324 173 44 43
-2.081154 -1.475877 -0.415581 196 103 134
-2.093919 -1.391542 -0.371853 191 37 40
-2.110950 0.562583 0.084770 180 43 55
-2.091359 1.636981 -0.342216 177 25 35
-2.096515 2.166308 -0.298119 177 21 28
-2.152715 4.259247 0.759502 172 39 41
-2.150015 4.334307 0.628803 172 44 54
-2.167882 4.376119 0.726273 174 44 53
-2.196101 4.828152 1.155682 167 70 58
-2.062008 -1.062885 -0.381893 188 23 27
-2.102943 -0.028366 0.116093 181 49 58
-2.051609 1.337739 -0.636490 179 24 28
-2.078346 2.385858 -0.264179 177 23 31
-2.064949 3.696483 -0.341774 180 38 38
-2.053363 -1.325131 -0.385147 190 54 74
-2.091717 -0.675930 0.108669 181 31 33
-2.090557 -0.396250 0.191227 180 31 37
-2.076318 0.102414 0.062695 179 43 62
-2.071405 0.509700 0.117046 181 35 35
-2.068893 1.869278 -0.273315 179 31 43
-2.055249 1.929603 -0.218124 172 30 45
-2.084926 2.664254 0.124561 175 30 49
-2.070963 3.873676 0.033443 181 41 39
-2.102450 4.059192 0.474083 180 41 44
-2.117535 4.212996 0.761856 176 42 40
-2.137868 4.596776 1.009914 172 43 38
-2.072132 0.692703 0.039852 185 51 62
-2.013413 1.318261 -0.703636 179 19 27
-2.044957 1.718652 -0.237148 185 28 40
-2.072501 2.855535 0.177410 179 34 50
-2.063751 3.170739 0.138523 170 54 90
-2.039401 3.634698 -0.341747 183 45 51
-2.122433 4.673385 1.044064 169 58 52
-2.142655 4.800025 1.099197 162 66 58
-2.127903 4.832279 0.941269 160 70 63
-2.153538 4.961919 1.192753 163 69 68
-2.166487 5.123652 1.611423 160 80 74
-2.510410 6.354537 7.689316 155 81 76
-2.052884 -0.810888 0.051773 176 40 40
-2.059566 -0.520018 0.175873 175 40 47
-2.057923 -0.286848 0.337933 181 40 48
-2.047736 3.010503 0.113041 173 37 47
-2.015204 -1.349739 -0.386116 191 56 62
-2.030955 -0.210664 0.201298 182 53 77
-2.031090 -0.134021 0.143127 180 41 66
-2.034861 0.033460 0.139835 180 53 71
-2.040601 0.226456 0.174397 182 30 48
-2.004512 0.950506 -0.109295 181 21 31
-2.017981 1.445891 -0.115200 177 20 34
-2.004005 1.626422 -0.334942 180 36 45
-2.015442 2.042054 -0.216007 178 29 33
-2.036033 2.751314 0.095398 180 23 38
-2.084757 4.266240 0.850933 176 46 46
-2.072283 4.506326 0.782848 171 49 39
-1.980780 -1.121085 -0.514111 189 30 23
-2.030455 -0.470726 0.447014 183 32 46
-2.011733 0.372224 0.101116 180 34 47
-2.000890 0.867325 -0.179932 180 29 44
-2.005024 0.994648 -0.142860 181 25 36
-2.023651 2.547380 0.073433 182 28 36
-1.988683 3.607092 -0.423138 184 37 47
-2.000291 3.870461 -0.007767 181 38 33
-2.052306 4.167336 0.713554 177 45 45
-2.081045 4.672380 1.075974 171 61 55
-2.078178 4.867212 0.955330 163 75 63
-2.435890 6.268531 7.682865 155 82 77
-1.965613 -1.446705 -0.411453 203 125 161
-1.993981 2.130055 -0.089447 175 24 26
-1.962562 2.306149 -0.390621 178 24 34
-1.982546 3.797912 -0.095840 180 38 42
-2.098921 5.151503 1.656902 158 76 70
-1.967271 -0.994966 -0.150795 179 21 22
-1.980444 2.642122 0.112778 179 28 42
-1.969027 3.862677 0.044807 173 39 32
-1.920282 -1.564641 -0.494083 179 87 92
-1.932915 -1.228528 -0.396351 190 24 23
-1.931644 -1.161988 -0.404339 190 22 19
-1.964290 0.138039 0.088223 190 54 77
-1.964010 0.303542 0.125526 184 38 65
-1.957701 0.694716 -0.049831 185 35 38
-1.944921 0.750749 -0.121696 180 34 40
-1.950929 1.236495 -0.029259 178 18 23
-1.958738 1.565508 -0.033466 181 27 41
-1.938802 1.733863 -0.217983 178 34 43
-1.940777 3.424153 -0.213200 182 41 61
-1.936863 3.647453 -0.278652 182 35 44
-1.989522 4.040509 0.612156 179 42 41
-1.997714 4.421834 0.824745 174 53 53
-2.036761 4.707359 1.133289 169 57 55
-2.038259 4.947811 1.323170 164 70 67
-1.941221 -0.859900 0.017399 182 15 24
-1.953476 -0.238528 0.270317 179 34 47
-1.952750 0.433304 0.175835 182 32 44
-1.943072 1.146407 0.126091 181 18 25
-1.920770 1.823892 -0.152946 179 31 55
-1.933947 2.262465 -0.007977 176 31 36
-1.925455 2.327560 -0.071682 178 24 32
-1.928158 2.733734 -0.060200 176 33 43
-1.922386 3.541628 -0.318001 179 40 52
-1.921829 3.680038 -0.276051 182 34 46
-2.024197 5.014747 1.489769 162 75 76
-1.885928 -1.318684 -0.455200 185 33 53
-1.932171 -0.789631 0.106903 178 16 22
-1.912919 1.927404 -0.111027 179 25 28
-1.913460 2.109693 0.083328 178 30 37
-1.922647 2.167450 -0.001488 183 27 42
-1.918503 2.876018 0.006268 178 42 55
-1.908983 3.356017 -0.136295 184 81 106
-1.920423 3.839991 0.059132 181 39 40
-1.962635 4.161426 0.884598 174 43 39
-1.977090 4.322628 0.973000 170 45 41
-2.413331 6.788413 9.262688 153 94 78
-1.908184 1.546677 0.171104 179 28 43
-1.896024 2.191249 -0.133568 181 26 44
-1.889172 2.313205 -0.257641 178 29 30
-1.907244 2.580259 0.021061 179 28 39
-1.907140 3.111712 0.041672 181 98 145
-1.905680 3.802211 -0.008434 179 39 44
-1.907529 3.933002 0.141354 176 37 42
-2.019633 5.180806 1.811554 160 82 75
-1.905283 -0.605030 0.201447 179 27 42
-1.919472 -0.432551 0.546875 180 32 40
-1.898752 1.425262 0.149937 179 36 56
-1.885217 2.881255 -0.000771 176 37 50
-1.934887 4.211578 0.809700 172 42 43
-1.936495 4.639353 0.945953 164 62 56
-2.352954 6.387670 8.641121 157 88 85
-1.858700 0.071706 0.000927 181 44 51
-1.862542 0.176228 -0.033619 182 30 45
-1.871591 0.622732 -0.031239 180 28 50
-1.862182 1.114955 0.140354 178 23 23
-1.854355 1.600942 -0.196907 178 27 39
-1.857277 1.665620 -0.182068 179 30 49
-1.857073 1.811384 -0.025379 179 33 47
-1.866521 2.477231 0.046467 181 26 33
-1.872347 2.635480 0.119434 181 25 39
-1.854265 3.636460 -0.124035 178 39 43
-1.910564 4.495911 0.750313 170 53 47
-1.926783 4.889595 0.976826 161 72 65
-2.343675 6.600950 9.071404 156 86 79
-1.815390 -1.398411 -0.495193 195 111 137
-1.820569 -1.064718 -0.463768 181 25 21
-1.872204 -0.307766 0.418095 178 34 57
-1.855773 -0.129580 0.093014 176 34 44
-1.850438 1.261051 0.059578 180 26 25
-1.837642 1.746206 -0.054012 180 28 38
-1.845779 1.998007 -0.034813 178 28 31
-1.846073 2.258294 -0.170513 176 28 40
-1.852354 2.725108 -0.012890 176 36 47
-1.850009 3.901354 -0.035660 176 41 41
-1.799642 -1.617020 -0.505527 184 83 91
-1.823503 -0.862383 -0.113327 182 19 19
-1.844623 -0.592837 0.239647 178 19 37
-1.836581 0.731264 -0.111546 178 21 28
-1.817538 1.015449 -0.180920 182 18 32
-1.824822 2.386526 -0.074841 179 23 31
-1.829016 3.360863 -0.051281 177 63 84
-1.883304 4.555140 0.849098 168 51 52
-1.893558 4.691449 1.061489 160 60 51
-1.895007 4.761211 1.072807 165 66 58
-1.892875 4.839894 0.997505 163 68 67
-1.810311 -0.006856 -0.013306 182 37 47
-1.786693 1.610021 -0.345428 180 24 36
-1.802832 1.905921 -0.124210 178 31 43
-1.808792 2.337550 -0.214935 177 26 33
-1.827899 3.921726 0.052532 175 41 39
-1.849105 4.363821 0.936832 169 44 44
-2.260781 6.420571 8.837521 156 83 76
-1.805851 -0.719263 0.190308 183 15 22
-1.824312 -0.560843 0.350746 178 23 27
-1.807678 -0.272859 0.191574 177 23 47
-1.796864 -0.134225 0.092274 179 30 42
-1.792990 0.220155 -0.037563 178 20 35
-1.810710 0.332879 0.098324 180 28 40
-1.807138 1.491867 0.163551 179 24 37
-1.811068 1.526831 0.167511 178 27 29
-1.792558 3.236309 -0.049393 182 81 111
-1.769416 -1.011622 -0.340008 184 30 22
-1.777970 0.670574 -0.002125 180 19 27
-1.790898 1.336885 0.135822 185 53 76
-1.781013 1.865755 -0.072067 177 25 38
-1.785277 2.482785 0.134731 179 34 41
-1.773485 3.615696 0.003975 178 38 40
-1.830402 4.158189 0.975639 172 39 38
-1.838767 4.203238 1.033459 171 45 40
-1.833452 4.456120 1.021015 170 55 37
-1.820005 4.497677 0.913952 167 53 46
-1.850531 4.841143 1.212528 165 70 62
-1.734571 -1.210694 -0.430580 178 20 34
-1.749804 -1.077362 -0.392864 188 29 25
-1.797666 -0.446796 0.501099 174 22 34
-1.767222 -0.015777 0.002270 179 23 47
-1.769328 0.271356 0.001537 179 29 38
-1.774222 0.455335 0.111084 181 24 27
-1.759580 0.867005 -0.137661 180 23 30
-1.764890 2.556220 -0.081482 175 28 44
-1.798731 3.916206 0.578789 174 39 34
-2.189046 6.440141 8.395786 154 81 76
-1.708085 -1.594767 -0.571316 183 93 104
-1.760106 -0.636249 0.318974 178 17 22
-1.749025 0.160683 -0.033451 183 23 32
-1.754289 0.737951 0.046024 179 22 26
-1.759959 1.124896 0.110153 179 25 27
-1.744823 1.711136 -0.041031 184 38 39
-1.753526 2.172764 0.244492 179 28 33
-1.736902 2.985729 0.027081 178 81 118
-1.745910 3.310052 -0.026459 185 74 103
-1.745775 3.676021 0.070686 183 40 42
-1.788130 4.554143 0.870529 166 60 57
-1.693425 -1.338065 -0.472565 186 71 97
-1.759149 -0.396380 0.716312 180 29 38
-1.730577 0.650147 0.033348 182 18 26
-1.736235 0.807208 0.016521 185 20 31
-1.724031 0.929372 -0.090347 180 23 28
-1.730451 1.174206 0.050999 183 26 35
-1.723349 1.287255 -0.008251 187 55 68
-1.723484 1.978522 0.039650 177 26 38
-1.731358 2.643687 0.216934 175 27 43
-1.730622 2.764088 0.130737 180 32 59
-1.771025 4.213833 0.917873 173 45 41
-1.688080 -1.277333 -0.452827 180 62 87
-1.726312 -0.157232 0.364864 180 25 39
-1.709443 0.003616 0.018833 180 30 37
-1.711517 0.429055 0.064823 178 19 27
-1.728573 2.380903 0.280895 175 35 32
-1.710545 3.100604 -0.002895 181 58 80
-1.713949 3.643245 -0.020645 183 39 43
-2.155261 6.265793 9.400002 157 78 69
-2.175452 6.399601 9.840286 155 78 66
-2.134499 6.466928 8.915073 155 84 82
-1.672718 -1.019498 -0.360718 185 19 21
-1.703006 0.230847 0.007687 182 22 27
-1.706136 0.700059 0.135658 180 21 22
-1.688769 1.932382 -0.050137 178 34 35
-1.692201 2.193750 0.097183 182 24 28
-1.694261 2.510350 0.264896 180 29 38
-1.697759 3.067949 0.008045 179 40 65
-1.681490 3.209689 -0.064007 177 56 93
-1.700639 3.860237 0.128208 175 41 37
-1.744248 4.342508 0.915150 169 47 37
-1.751769 4.446188 0.933670 167 54 39
-2.143547 6.471943 9.796921 156 76 74
-1.706461 -0.506711 0.522503 178 18 28
-1.673759 0.880924 -0.022675 179 22 31
-1.677116 2.789034 0.138557 178 34 59
-1.671510 3.410134 -0.040565 183 38 43
-1.708157 4.270040 0.783909 169 50 35
-1.651047 -0.829933 -0.272499 179 18 18
-1.682857 -0.540587 0.444130 181 15 27
-1.649687 0.367576 0.041725 178 16 27
-1.668033 0.505181 0.139149 182 17 34
-1.666425 0.633063 0.078522 183 18 23
-1.662576 1.088636 0.104076 179 25 31
-1.671107 1.422908 0.192734 178 23 41
-1.659748 1.820541 0.116680 178 26 39
-1.664846 1.993946 0.068771 179 31 42
-1.665397 2.117536 0.318275 176 26 35
-1.675800 2.394584 0.293545 175 29 38
-1.671614 2.605462 0.233582 178 25 44
-1.647261 3.485083 -0.011261 181 36 41
-1.706176 4.132631 0.855347 171 42 38
-1.726826 4.721344 1.278797 163 61 53
-2.098261 6.464272 9.530968 158 75 78
-1.613758 -1.218998 -0.447479 183 69 95
-1.621837 -0.991691 -0.385876 184 17 24
-1.631401 -0.687513 0.021286 182 9 19
-1.648494 0.270407 0.112301 179 16 27
-1.647204 0.887425 -0.011448 177 25 30
-1.657245 1.374278 0.188538 182 28 38
-1.645906 1.608064 0.212543 180 29 39
-1.632529 1.626293 -0.044418 180 29 44
-1.654203 1.769382 0.168957 182 28 41
-1.626747 3.749322 -0.097256 179 36 42
-1.710495 4.583500 1.043499 164 59 51
-2.076951 6.526155 9.252602 153 84 78
-1.590646 -1.312051 -0.483025 180 84 112
-1.602891 -0.907685 -0.346001 183 20 23
-1.647506 -0.443128 0.528362 174 17 28
-1.666497 -0.312174 0.730930 179 18 36
-1.624857 0.458929 0.038158 177 16 29
-1.631306 1.929814 0.142830 179 26 39
-1.636786 3.505259 0.046082 182 39 45
-1.576655 -1.569616 -0.591663 184 78 90
-1.595220 -0.745233 -0.151955 181 22 20
-1.616319 0.174751 0.017399 180 23 35
-1.608981 0.962984 0.074902 179 28 34
-1.609251 1.302431 0.167603 177 31 48
-1.606053 1.524393 0.208027 180 30 36
-1.608321 2.038803 0.122810 179 33 37
-1.625243 2.184852 0.284447 177 33 39
-1.594312 2.979907 -0.024261 178 51 73
-1.661823 4.436787 1.174656 166 50 53
-1.653397 4.508958 1.048214 167 58 49
-1.688109 4.803251 1.620426 165 66 60
-1.719943 5.111088 2.248116 160 77 77
-1.987474 6.613358 8.293739 152 89 81
-1.566140 -1.393987 -0.503273 179 74 76
-1.562102 -1.041985 -0.370754 188 18 26
-1.594005 -0.603980 0.163280 181 14 22
-1.610969 -0.380620 0.591347 181 19 34
-1.597869 -0.013648 0.276478 181 33 56
-1.591387 0.996970 0.036224 182 26 39
-1.591521 1.070768 0.089298 180 26 38
-1.606007 2.399323 0.270359 177 34 40
-1.590073 2.690067 0.099182 180 36 55
-1.592969 3.570123 0.221054 182 37 42
-1.575368 3.701472 -0.091595 174 40 37
-1.613572 3.965507 0.521988 176 44 38
-1.576118 -0.543884 0.270794 181 10 22
-1.574851 0.359269 -0.019093 181 21 26
-1.566520 0.474051 0.002937 178 20 24
-1.578029 0.713988 0.001118 182 25 34
-1.569587 1.159833 0.102253 179 30 49
-1.575738 2.646976 0.155659 177 41 51
-1.574956 2.856653 0.027592 186 91 129
-1.566898 3.046368 -0.059654 179 71 111
-1.585930 3.599488 0.265182 178 39 38
-1.615603 4.267473 0.874447 171 49 44
-1.536783 -0.898530 -0.350681 178 20 23
-1.532667 -0.871428 -0.370640 180 18 22
-1.568159 -0.154011 0.460869 175 32 45
-1.547712 0.663691 -0.045845 178 22 35
-1.570066 1.419023 0.190796 182 25 39
-1.558437 1.891894 0.168037 179 23 37
-1.548704 3.424525 -0.032887 183 38 39
-1.598689 4.231485 0.933334 169 50 42
-1.641454 4.855705 1.654980 161 66 58
-1.507156 -1.342347 -0.566109 185 62 83
-1.514711 -0.978352 -0.367138 180 21 18
-1.541246 0.834159 -0.031643 181 23 34
-1.540877 0.933306 0.049797 175 26 32
-1.549858 1.145190 0.100895 180 30 42
-1.541528 1.636543 0.343040 181 30 29
-1.547315 2.107277 0.462486 176 28 44
-1.549603 2.370360 0.301861 178 33 34
-1.534238 3.037029 -0.073303 178 67 107
-1.539586 3.632609 0.342693 177 35 35
-1.531495 3.674297 -0.200806 175 36 37
-1.609507 4.570686 1.265282 163 63 50
-2.085653 6.862247 12.752071 151 80 72
-1.490512 -1.091557 -0.439426 182 27 35
-1.498646 -0.798303 -0.308929 181 16 21
-1.512119 0.715286 -0.068207 178 23 37
-1.512504 1.301377 0.225132 182 32 57
-1.522023 2.533555 0.214844 173 39 48
-1.515942 2.638695 0.168831 175 35 48
-1.534186 3.887649 0.371841 171 37 36
-1.575613 4.486650 1.209339 165 52 50
-2.043345 7.028393 12.438862 148 88 76
-2.106448 7.335941 13.584259 153 88 84
-1.457581 -1.527372 -0.744511 175 94 97
-1.482231 -1.194599 -0.475559 184 71 99
-1.473614 -0.903746 -0.394909 182 20 25
-1.511119 0.034198 0.149849 178 20 36
-1.500651 0.593372 -0.122929 180 20 32
-1.503732 0.903890 0.054005 176 26 33
-1.497428 1.081457 0.072323 178 26 34
-1.512929 1.448050 0.268887 177 24 36
-1.524892 1.766979 0.504528 176 28 41
-1.513808 2.277381 0.197208 176 30 45
-1.503047 2.832913 0.063766 176 62 91
-1.490799 3.148179 -0.179203 189 64 86
-1.506997 3.571103 0.280277 176 40 36
-1.512701 3.649739 0.466099 173 37 35
-1.481958 3.640166 -0.287628 177 40 40
-1.515354 4.046052 0.108532 169 47 29
-1.474371 -0.666389 -0.246181 174 10 17
-1.470447 0.513760 -0.182327 181 21 32
-1.494261 1.295466 0.250591 183 35 57
-1.495358 1.580662 0.429234 181 28 31
-1.502034 2.185987 0.396000 172 26 39
-1.497656 2.366642 0.318562 175 28 30
-1.469568 3.358320 -0.249664 178 40 44
-1.481416 3.444676 -0.091038 176 35 35
-1.516131 4.156906 0.434135 167 50 41
-1.517750 4.326641 0.832035 162 50 37
-2.059370 7.261724 13.525791 153 84 77
-1.434356 -1.069259 -0.461849 178 25 42
-1.465354 -0.713081 -0.309711 177 11 17
-1.487803 -0.436331 0.288349 168 17 20
-1.464142 0.134241 -0.031387 175 29 41
-1.459327 0.220898 -0.116467 179 28 47
-1.487183 1.672825 0.522556 179 21 36
-1.470939 2.785003 0.072243 171 84 109
-1.479364 3.911821 0.200962 171 43 36
-1.537446 4.671969 1.332436 162 65 55
-1.542240 4.764538 1.478146 165 71 63
-1.410824 -1.440976 -0.705444 175 94 99
-1.427321 -0.812038 -0.408867 182 24 21
-1.435979 -0.651977 -0.368420 174 13 21
-1.468070 -0.321103 0.537731 173 10 29
-1.436252 0.748093 -0.128384 178 30 42
-1.459040 1.044419 0.200413 181 27 33
-1.450240 1.203984 0.097630 179 42 50
-1.503484 4.455005 1.189285 166 60 50
-1.402516 -1.255333 -0.547710 181 65 84
-1.431252 -0.426621 0.133133 169 15 21
-1.440699 -0.220165 0.438900 178 20 35
-1.420834 0.366262 -0.211483 177 30 51
-1.436444 0.816487 -0.058495 175 27 36
-1.447220 1.339764 0.292446 182 29 50
-1.439504 1.516797 0.269779 176 25 37
-1.452011 1.925851 0.249237 178 34 43
-1.421690 2.947890 -0.077473 183 78 115
-1.497020 4.697997 1.401039 159 70 57
-1.503036 4.764953 1.462677 163 71 68
-1.390277 -0.564520 -0.259514 177 10 21
-1.424873 -0.028282 0.293327 179 22 39
-1.436923 1.717507 0.657623 181 26 31
-1.443206 1.797946 0.677231 176 27 38
-1.408276 3.443713 -0.046768 180 34 44
-1.422404 3.621388 0.572689 178 36 37
-1.933854 7.359510 13.041283 146 88 89
-1.410851 -0.324808 0.515011 180 17 23
-1.418773 -0.267471 0.448639 181 16 32
-1.399306 0.005980 0.211201 178 22 40
-1.408459 0.039274 0.176395 177 20 42
-1.384300 0.251969 -0.078125 181 20 38
-1.391914 0.497912 -0.201439 179 24 36
-1.398202 0.668877 -0.019470 177 25 42
-1.412829 1.522302 0.386761 172 24 34
-1.412104 2.414529 0.300976 179 37 56
-1.394595 3.058592 -0.110981 187 63 92
-1.402878 4.062516 -0.025394 168 48 39
-1.449616 4.610277 1.202850 159 72 63
-1.345495 -1.198995 -0.507225 179 57 77
-1.353662 -0.975585 -0.454800 178 19 33
-1.359771 -0.577062 -0.356113 176 14 21
-1.399839 -0.112372 0.444271 180 21 43
-1.375564 0.131530 -0.033688 177 21 42
-1.385722 0.716177 -0.017200 181 30 50
-1.419654 1.789008 0.702900 180 24 40
-1.380679 2.688544 0.063313 179 85 102
-1.369275 3.331922 -0.223534 181 32 38
-1.390510 4.002971 -0.137009 170 42 40
-1.389050 4.138992 0.118042 166 51 43
-1.419322 4.401563 0.846348 160 59 57
-1.325894 -1.501310 -0.860594 174 97 103
-1.354703 -0.415623 0.045395 171 7 23
-1.384793 1.687038 0.577503 175 23 34
-1.382077 2.086374 0.485950 177 29 43
-1.359638 2.444613 0.233879 173 34 50
-1.368790 3.720538 0.295845 178 39 36
-1.362794 3.758300 0.113735 176 36 36
-1.379820 4.264584 0.458721 169 50 48
-1.408533 4.564710 1.189041 162 63 68
-1.417836 4.683982 1.157997 155 70 62
-1.423679 4.774726 1.267048 157 71 73
-1.832982 7.245543 12.461983 147 91 88
-1.314909 -1.381860 -0.676758 179 85 83
-1.327602 -0.769663 -0.414017 179 13 25
-1.329613 0.506170 -0.221378 178 21 28
-1.340630 0.627202 -0.120255 179 23 37
-1.356372 1.031218 0.219204 178 25 40
-1.385840 3.768157 1.165585 173 41 45
-1.292187 -1.318492 -0.678864 177 87 87
-1.298280 -1.036233 -0.492920 182 59 80
-1.306795 -0.660604 -0.463497 176 26 19
-1.308810 -0.576005 -0.404774 173 17 18
-1.343482 -0.279601 0.409580 177 17 27
-1.335169 1.515473 0.272854 175 24 29
-1.347234 1.872394 0.396435 181 26 37
-1.327459 2.285597 0.287689 176 37 56
-1.329774 2.907218 -0.002544 180 74 101
-1.316253 3.225079 -0.134346 182 38 48
-1.352647 3.592406 0.626328 180 38 41
-1.340804 3.914980 0.555874 169 43 37
-1.384665 4.911973 1.377529 158 69 69
-1.748038 6.881964 11.948498 151 85 79
-1.277751 -1.266149 -0.623672 176 70 74
-1.306422 -0.433164 -0.085850 170 6 14
-1.327673 -0.225247 0.502216 174 17 28
-1.317197 0.077105 0.316124 179 27 42
-1.304057 0.194712 -0.007015 177 21 36
-1.302618 0.591705 -0.188339 181 30 32
-1.304455 0.777738 -0.115665 174 27 45
-1.312394 0.917312 0.085339 179 28 50
-1.316851 1.394108 0.281990 178 25 35
-1.337756 1.829673 0.534180 183 28 35
-1.329866 2.033314 0.431572 175 32 34
-1.318585 2.429907 0.263012 176 38 54
-1.787380 6.773851 12.619629 154 85 73
-1.709737 6.898569 11.407162 150 88 84
-1.295115 0.824603 -0.063210 173 31 47
-1.291346 1.187029 0.096874 177 35 44
-1.312185 1.307460 0.302544 178 29 42
-1.292687 1.577985 0.201992 180 24 38
-1.310081 1.704073 0.371021 175 26 34
-1.328662 3.786883 1.010197 171 41 36
-1.323895 3.825565 0.987732 169 40 36
-1.225224 -1.414107 -0.850698 175 92 99
-1.294950 -0.223861 0.503956 174 15 20
-1.270700 0.549294 -0.147564 176 24 39
-1.279656 1.397339 0.260170 175 24 35
-1.281881 1.991813 0.412010 178 28 34
-1.270248 2.998137 -0.119930 175 34 50
-1.266137 3.094404 -0.263020 176 33 35
-1.329105 3.701779 1.114296 174 42 39
-1.310117 3.872071 0.909420 169 42 36
-1.348511 4.540246 1.876659 159 61 46
-1.343963 4.906311 1.378555 157 69 68
-1.201690 -1.508964 -1.106119 180 99 103
-1.217526 -1.362702 -0.752136 175 93 101
-1.229745 -0.620473 -0.580662 176 25 29
-1.260213 1.122484 0.054733 177 28 45
-1.254939 1.374075 0.168629 180 25 38
-1.266106 1.720203 0.253708 179 26 29
-1.278966 1.845252 0.227234 179 24 31
-1.275646 2.123374 0.478439 176 35 43
-1.264540 2.556652 0.113636 180 77 104
-1.243970 3.255354 -0.199936 180 31 39
-1.256194 3.405819 -0.079922 178 35 34
-1.301063 3.825962 1.009274 172 41 34
-1.217677 -1.104268 -0.578335 177 56 63
-1.213004 -1.079696 -0.575474 179 52 63
-1.248847 -0.250460 0.417095 176 12 21
-1.247562 -0.130993 0.501171 176 21 37
-1.228102 0.458302 -0.095093 177 25 40
-1.248003 1.011667 0.111774 178 32 45
-1.252054 1.681787 0.219021 181 25 35
-1.235431 2.947088 -0.024097 181 38 66
-1.252894 4.132142 0.366680 163 48 44
-1.181955 -1.239523 -0.718521 176 80 77
-1.198807 -0.947610 -0.570866 180 49 61
-1.202388 -0.542994 -0.508186 179 13 19
-1.237523 -0.260896 0.327030 174 15 20
-1.231918 -0.041542 0.500557 178 19 38
-1.230962 0.062590 0.350891 175 21 31
-1.231309 0.755384 -0.155090 177 26 38
-1.227432 0.900313 0.002789 181 29 43
-1.230824 1.524207 0.099384 178 20 25
-1.230279 1.856155 0.357964 174 26 33
-1.236659 3.592180 0.634178 172 40 38
-1.265775 3.703665 1.041233 175 41 36
-1.245224 3.945927 0.508766 169 48 36
-1.153427 -1.531152 -1.073582 176 102 99
-1.177087 -0.678657 -0.590961 174 31 37
-1.209691 0.283931 0.144062 177 23 38
-1.203821 0.595968 -0.006954 177 30 45
-1.208142 1.753745 0.261650 176 23 34
-1.213727 2.178754 0.262913 175 29 42
-1.205398 3.065314 -0.127739 183 32 46
-1.201200 3.248724 -0.166599 180 31 43
-1.198161 3.376459 -0.072170 174 34 34
-1.230064 4.088704 0.305008 168 52 38
-1.227931 4.316724 0.759186 163 63 55
-1.142967 -1.321552 -0.930996 178 92 101
-1.160075 -1.008853 -0.609295 179 45 59
-1.165733 -0.846271 -0.597092 179 33 47
-1.160990 -0.803123 -0.564167 180 28 45
-1.170933 -0.423650 -0.344105 171 14 18
-1.194838 0.345342 0.091694 180 23 34
-1.202962 0.406880 0.058685 177 19 35
-1.181119 1.092719 -0.000759 179 29 49
-1.184381 1.262149 0.025417 179 26 35
-1.187297 1.623028 0.085758 181 28 36
-1.186387 1.946245 0.125565 173 36 49
-1.189797 2.003389 0.187794 174 31 43
-1.209418 3.861488 0.597095 168 46 33
-1.266955 4.843314 1.916447 160 77 67
-1.150064 -0.489594 -0.515110 175 20 23
-1.161701 -0.319780 -0.008289 172 11 17
-1.182861 -0.246229 0.307461 171 16 24
-1.174256 0.110938 0.180813 178 26 37
-1.167473 1.435316 0.026569 177 21 30
-1.184760 1.749057 0.250816 179 23 37
-1.160692 1.886103 0.126923 168 32 45
-1.172729 2.060763 0.229740 177 38 53
-1.180561 3.574216 0.494137 169 39 36
-1.241734 4.888420 1.738045 156 77 60
-1.119221 -1.298800 -0.890522 176 87 87
-1.150449 0.133983 0.150589 180 30 39
-1.153383 0.950679 0.104992 179 33 50
-1.157257 1.526252 -0.000763 178 21 28
-1.153061 2.332063 0.112415 172 53 68
-1.162718 2.426934 0.200951 182 76 82
-1.152677 2.786875 0.077999 179 83 102
-1.143190 3.372005 -0.130081 173 34 36
-1.179055 4.109337 0.590626 165 52 41
-1.177713 4.196504 0.584312 160 58 42
-1.209983 4.796857 1.748978 158 76 64
-1.553440 6.709207 12.000137 151 89 72
-1.087469 -1.517633 -1.069702 180 108 110
-1.100591 -1.343783 -0.926386 175 88 94
-1.113906 -0.634632 -0.624439 177 28 47
-1.139034 -0.183443 0.250290 178 13 29
-1.134561 0.259293 0.239365 175 22 39
-1.131178 0.870962 -0.005699 175 28 47
-1.129868 1.165814 -0.093758 177 25 37
-1.141431 1.646201 0.084938 177 23 31
-1.165448 3.750208 0.680279 169 41 39
-1.087730 -1.157139 -0.709663 176 79 73
-1.094868 -0.698250 -0.593483 181 25 33
-1.092519 -0.580485 -0.638481 179 26 32
-1.095332 -0.477638 -0.532372 174 19 23
-1.107406 -0.381071 -0.275799 174 11 18
-1.120358 -0.207406 0.113312 176 11 30
-1.128241 0.002677 0.191700 178 23 41
-1.120998 0.039799 0.135311 175 23 43
-1.108714 2.682074 0.042355 178 83 117
-1.174476 4.790915 1.649647 156 72 65
-1.165164 4.863017 1.312859 152 79 72
-1.066118 -1.240302 -0.848841 178 88 94
-1.081250 -1.105150 -0.696980 172 75 77
-1.103263 0.465661 -0.012245 178 28 48
-1.095731 0.516627 0.040161 173 26 45
-1.099905 0.745141 -0.068699 179 25 38
-1.102183 0.842174 -0.024418 180 29 48
-1.089411 1.064923 -0.052269 182 28 54
-1.085797 1.098439 -0.095070 181 27 51
-1.101474 1.844146 0.126068 168 37 49
-1.090501 2.570805 0.075726 176 53 84
-1.075782 3.081420 -0.394741 183 34 46
-1.090348 3.415550 -0.135109 175 34 42
-1.107643 3.996358 0.334858 164 53 40
-1.143223 4.566667 1.170868 160 71 64
-1.046005 -1.344730 -1.036463 177 92 95
-1.049184 -0.964224 -0.702110 178 47 57
-1.088980 0.169829 0.262558 176 22 41
-1.079466 1.995643 0.180317 174 34 47
-1.088978 3.832551 0.297626 164 46 33
-1.043944 -0.603125 -0.689434 179 22 39
-1.046568 -0.301688 -0.313702 178 7 22
-1.082652 0.383367 0.240471 177 30 46
-1.066618 1.406337 0.027012 172 24 34
-1.051800 3.074726 -0.354012 178 35 41
-1.045774 3.171143 -0.298462 180 28 41
-1.089687 3.959141 0.374462 166 49 41
-1.091348 4.165872 0.457813 162 62 53
-1.094324 4.213876 0.521595 162 58 56
-1.089397 4.280790 0.625896 158 66 58
-1.012010 -1.193525 -0.886292 176 85 80
-1.016549 -1.047684 -0.785069 179 65 73
-1.057327 0.248875 0.292000 179 27 42
-1.040129 1.136229 -0.105831 175 26 31
-1.055474 1.802809 0.139008 172 36 48
-1.065887 3.653324 0.648190 171 39 35
-1.070543 4.119477 0.489609 164 59 49
-1.082884 4.840149 0.803024 151 84 79
-1.346528 7.016793 11.388962 148 90 79
-0.983687 -1.475208 -1.098051 178 105 104
-0.999277 -1.316478 -1.053593 178 95 95
-1.006456 -0.536139 -0.628651 178 17 32
-1.025317 -0.236266 -0.132805 178 11 28
-1.033228 -0.140087 0.038536 178 20 33
-1.047823 0.273571 0.344448 182 27 43
-1.040406 2.217747 0.220249 179 86 104
-1.033772 2.336805 0.135777 175 54 73
-1.025425 2.951724 -0.071712 179 33 41
-1.048974 3.801835 0.544903 167 46 28
-0.977981 -1.580260 -0.974775 178 109 110
-0.993725 -1.103721 -0.801685 176 78 75
-0.994565 -0.443650 -0.553833 175 19 28
-1.015898 0.712548 -0.084530 172 25 33
-1.008949 0.859230 -0.078308 179 28 46
-1.030148 1.309859 0.487827 179 24 33
-1.019408 1.339310 0.431885 178 21 31
-1.019560 1.671048 0.034241 173 48 66
-1.005215 2.880782 0.011608 178 38 43
-1.008539 3.305103 -0.155659 171 38 34
-1.013665 3.391690 -0.049137 170 42 33
-1.027061 4.013205 0.320797 161 51 41
-1.030200 4.235941 0.434578 154 61 53
-0.971735 -0.709977 -0.676735 179 41 56
-0.998395 -0.086111 0.008133 175 17 21
-0.994901 0.461521 0.084732 176 27 45
-0.985114 0.819940 0.013351 178 29 44
-0.991890 0.904551 -0.084557 177 29 40
-0.992982 1.793457 0.138248 178 34 48
-0.987980 2.619246 0.044289 180 54 65
-0.992561 2.663138 0.035072 180 54 67
-0.999829 2.756914 0.005806 182 42 56
-0.981748 3.041186 -0.270962 178 36 34
-1.015992 3.932025 0.408104 164 50 42
-0.925432 -1.417099 -1.100582 173 102 105
-0.939816 -1.287375 -1.064873 175 93 90
-0.947920 -1.192479 -0.898903 172 82 80
-0.972210 -0.453934 -0.551598 173 18 35
-0.973315 -0.152799 -0.100006 173 19 20
-0.971472 0.021770 -0.007355 174 16 31
-0.970667 0.083919 -0.014790 176 20 29
-0.975028 0.305145 0.205750 180 25 38
-0.961901 3.077888 -0.366081 177 33 35
-0.996795 3.713595 0.551723 170 42 37
-0.996957 3.745844 0.523006 170 39 37
-1.015759 4.585389 1.182224 155 72 59
-1.038770 4.799855 1.736607 152 74 72
-1.264305 7.167069 11.747108 144 87 81
-0.911701 -1.457833 -1.185997 172 108 104
-0.942219 -0.288688 -0.409863 171 14 24
-0.969545 0.821611 0.071667 177 29 40
-0.969759 1.085530 0.236427 176 28 42
-0.962028 1.167893 0.240547 178 26 41
-0.975192 1.548818 0.323772 176 38 48
-0.962131 2.510321 0.139877 177 59 89
-0.942164 2.938685 -0.089130 173 40 42
-0.961967 3.538259 0.342545 171 42 35
-1.003048 4.834917 1.138027 151 75 73
-0.938405 0.231971 0.094845 178 23 34
-0.943869 0.393837 0.216091 178 23 41
-0.942363 0.501383 0.194206 176 30 41
-0.950472 0.562922 0.232635 176 31 41
-0.949599 2.119630 0.216080 174 60 85
-0.951367 2.453954 0.140083 178 53 83
-0.925621 3.211183 -0.317604 174 38 38
-0.958357 4.072010 0.408615 162 55 43
-0.964449 4.252699 0.545544 154 70 61
-0.875915 -1.338812 -1.050655 177 101 105
-0.895231 -1.145361 -0.902212 175 84 87
-0.906784 -0.539673 -0.631622 176 29 42
-0.907481 -0.404684 -0.539066 171 17 29
-0.928415 -0.039987 -0.100346 174 22 17
-0.925953 0.641266 0.276783 178 26 39
-0.922187 0.821730 0.179382 176 32 39
-0.940671 1.303980 0.232220 182 22 34
-0.924588 2.009520 0.132832 179 74 79
-0.945313 3.820738 0.615604 165 48 29
-0.948806 4.413900 0.660984 154 71 61
-0.953060 4.483323 0.717514 158 73 67
-0.965068 4.630889 1.308193 156 74 62
-0.864863 -1.572845 -0.986559 175 112 107
-0.859297 -1.481659 -1.111383 176 106 106
-0.882318 -1.032707 -0.918531 176 80 85
-0.879250 -0.648305 -0.737926 178 38 42
-0.882901 -0.336254 -0.588394 173 16 29
-0.899666 -0.180605 -0.240952 176 16 22
-0.901452 -0.130158 -0.207447 175 21 21
-0.907989 0.148629 0.016144 177 22 31
-0.905070 0.239339 0.096420 179 23 34
-0.903393 0.994799 0.042385 179 28 37
-0.902838 1.086190 0.158817 178 27 36
-0.901998 2.752920 -0.036449 178 36 42
-0.886079 3.093883 -0.555313 175 40 38
-0.917030 3.703843 0.461433 167 45 33
-0.951476 4.907267 1.340908 153 81 74
-0.853852 -1.519312 -1.008253 176 108 110
-0.869485 -0.776915 -0.776443 173 54 56
-0.876313 -0.041617 -0.203152 172 23 21
-0.895554 0.682410 0.204754 175 23 35
-0.897802 0.750051 0.186123 177 27 32
-0.889852 0.947882 0.140175 176 32 42
-0.887208 2.825653 -0.024342 182 35 48
-0.902779 4.136824 0.487061 164 54 45
-0.835946 -1.413306 -1.087162 173 105 102
-0.848622 -1.125550 -0.944769 175 84 83
-0.846399 -0.990338 -0.905415 174 87 77
-0.875012 0.373900 0.159096 177 27 46
-0.871792 0.488580 0.139957 182 27 33
-0.873803 0.592576 0.211533 176 33 33
-0.876765 2.507260 0.114799 174 45 60
-0.853488 3.051547 -0.676178 175 42 38
-0.885239 3.697634 0.391804 164 46 36
-0.874045 3.861071 0.322617 165 49 39
-0.850762 1.188672 0.144768 178 39 46
-0.854589 1.586411 0.267628 169 42 55
-0.857876 1.966012 0.074436 176 45 59
-0.843447 2.725480 -0.012585 176 36 44
-0.843463 3.297848 -0.282150 171 38 34
-0.865604 4.062883 0.437855 166 56 47
-0.806006 -1.328969 -1.077658 176 100 107
-0.804474 -0.949501 -0.918558 174 79 75
-0.807934 -0.783519 -0.814003 170 56 65
-0.838579 -0.282802 -0.507137 172 10 29
-0.836507 0.252905 -0.001823 176 21 31
-0.838066 0.379202 0.142986 177 29 50
-0.832380 1.801074 0.013432 172 28 52
-0.837507 2.147601 0.159157 179 35 62
-0.828927 2.253662 0.071274 180 69 78
-0.822461 2.969655 -0.289871 178 44 43
-0.817343 3.016814 -0.667526 178 39 41
-0.839166 3.814471 0.249428 164 46 41
-0.851899 3.974302 0.496452 165 55 45
-0.876553 4.459496 1.098396 152 73 55
-0.785631 -1.461625 -0.870890 174 100 104
-0.798169 -0.795036 -0.821037 170 55 67
-0.817953 -0.143009 -0.329327 171 15 23
-0.827764 0.564501 0.104755 171 32 37
-0.817882 0.863558 0.055336 179 29 41
-0.826644 1.163880 0.131603 181 45 59
-0.813441 1.632770 -0.168854 179 45 56
