ply
format ascii 1.0
element vertex 727
property double x
property double y
property double z
property uchar red
property uchar green
property uchar blue
end_header
0.429416894912720 0.272644937038422 0.101861953735352 174 106 121
0.425464630126953 0.490459740161896 0.113528251647949 143 70 86
0.502737045288086 1.111340641975403 -0.312897682189941 181 156 134
0.425011873245239 -1.274619340896606 0.150789260864258 181 137 130
0.427188396453857 -0.915113925933838 0.144666671752930 135 72 80
0.437959194183350 -0.647743344306946 0.076757431030273 159 91 108
0.428022146224976 -0.464338541030884 0.115371704101563 151 77 94
0.439752101898193 -0.370437264442444 0.076588630676270 156 85 103
0.435075759887695 0.331626236438751 0.091270446777344 147 83 92
0.430958986282349 0.419564127922058 0.105524063110352 157 87 98
0.436198472976685 0.705991029739380 0.089629173278809 150 77 84
0.438677549362183 0.761203229427338 0.077742576599121 153 83 91
0.442921161651611 0.794978439807892 0.058892250061035 158 88 98
0.442758321762085 0.916889548301697 0.048548698425293 160 111 114
0.506097316741943 1.165910840034485 -0.303256034851074 184 157 136
0.502085447311401 1.221479415893555 -0.291066169738770 183 156 139
0.489298105239868 1.272958755493164 -0.234190940856934 176 148 134
0.431813001632690 -1.116374015808105 0.151131629943848 157 88 88
0.449030637741089 -0.678835749626160 0.041888236999512 136 71 93
0.436912298202515 -0.392784595489502 0.098572731018066 150 79 97
0.437376976013184 -0.028475165367126 0.123402595520020 166 95 111
0.442742347717285 0.114266157150269 0.059149742126465 141 73 85
0.445095539093018 0.597738742828369 0.079550743103027 160 83 93
0.443350076675415 0.719886302947998 0.078798294067383 154 82 89
0.447259187698364 0.786931872367859 0.053829193115234 153 82 92
0.447158098220825 0.817155480384827 0.053469657897949 158 87 100
0.515119075775146 1.071373939514160 -0.323643684387207 175 150 133
0.508714199066162 1.319607138633728 -0.314099311828613 179 148 130
0.434066057205200 -0.996997356414795 0.162905693054199 138 77 84
0.442709684371948 -0.747428417205811 0.098658561706543 131 73 88
0.448312520980835 -0.713350892066956 0.088574409484863 137 75 96
0.451496601104736 -0.250321388244629 0.070525169372559 152 88 103
0.441732168197632 0.206038951873779 0.096500396728516 153 82 98
0.452899456024170 0.394506275653839 0.082002639770508 156 86 96
0.462188243865967 0.546227812767029 0.010584831237793 162 86 98
0.449256181716919 0.663609981536865 0.059856414794922 154 79 86
0.515510559082031 0.985626816749573 -0.300073623657227 166 147 138
0.506263494491577 -1.342093467712402 -0.224952697753906 176 154 133
0.448911190032959 -0.583628416061401 0.096238136291504 174 101 118
0.457526683807373 -0.328224539756775 0.065540313720703 152 86 103
0.453762531280518 0.159286856651306 0.077448844909668 153 82 99
0.460028886795044 0.851836204528809 0.029365539550781 164 96 109
0.526504516601563 1.366874337196350 -0.345861434936523 176 147 129
0.455454826354980 -1.244832277297974 0.107789039611816 130 83 78
0.452582359313965 -0.878485202789307 0.126160621643066 132 69 76
0.452343225479126 -0.817373037338257 0.125061035156250 122 66 77
0.456712007522583 -0.632332086563110 0.095271110534668 160 91 109
0.454364538192749 -0.548471927642822 0.092779159545898 165 91 108
0.456643104553223 -0.072511434555054 0.099583625793457 170 96 113
0.453192234039307 0.013703823089600 0.122000694274902 154 84 96
0.460295677185059 0.322214722633362 0.081291198730469 157 91 103
0.522761344909668 0.985505938529968 -0.301677703857422 180 160 151
0.528713226318359 1.203245043754578 -0.311192512512207 170 143 122
0.454257249832153 -1.097054004669189 0.143939018249512 153 83 85
0.460430383682251 -0.854683160781860 0.125772476196289 129 68 76
0.468661069869995 -0.357494950294495 0.065646171569824 148 79 98
0.468887329101563 -0.307854175567627 0.073019981384277 144 82 99
0.462162017822266 -0.198517680168152 0.115468978881836 153 89 103
0.460195541381836 -0.115423560142517 0.106252670288086 163 89 106
0.460610866546631 -0.058736562728882 0.107257843017578 185 111 128
0.458073616027832 -0.020760774612427 0.112877845764160 171 98 114
0.460707902908325 0.237707257270813 0.113030433654785 152 85 102
0.469755411148071 0.806560575962067 0.053062438964844 163 90 102
0.534888982772827 1.007461786270142 -0.343644142150879 182 164 154
0.530794143676758 1.185425281524658 -0.309470176696777 178 151 130
0.532540559768677 1.349084973335266 -0.319513320922852 178 149 131
0.465799331665039 -1.173257112503052 0.098011970520020 147 87 87
0.467271327972412 -1.144245624542236 0.116702079772949 176 110 110
0.457841157913208 -0.929138898849487 0.148036956787109 136 75 80
0.462643861770630 -0.774194240570068 0.123881340026855 130 76 89
0.468028068542480 -0.648861050605774 0.105374336242676 152 85 103
0.463959455490112 -0.580983281135559 0.103144645690918 167 95 112
0.468507051467896 -0.277238965034485 0.074587821960449 173 112 128
0.464889764785767 0.012380242347717 0.115605354309082 158 87 99
0.463123559951782 0.028182268142700 0.120596885681152 154 84 95
0.465752363204956 0.225789546966553 0.110108375549316 152 84 99
0.540450334548950 1.050488591194153 -0.320963859558105 186 164 150
0.536248207092285 1.127975940704346 -0.307061195373535 166 140 117
0.523541212081909 -1.290729522705078 -0.183156013488770 180 154 133
0.463511943817139 -1.056621551513672 0.148672103881836 160 98 103
0.460244894027710 -1.037560701370239 0.155000686645508 146 84 90
0.470360279083252 -0.702996015548706 0.118280410766602 136 79 98
0.473174095153809 -0.655052065849304 0.084911346435547 148 83 103
0.474469661712646 -0.378411531448364 0.079833984375000 166 98 119
0.477273941040039 -0.240426182746887 0.068642616271973 157 96 110
0.465834379196167 -0.185854434967041 0.123963356018066 144 78 90
0.464145898818970 -0.169868469238281 0.126320838928223 136 65 79
0.471508979797363 0.659042477607727 0.116286277770996 161 86 91
0.521368741989136 -1.226521253585815 -0.143880844116211 191 155 137
0.486162185668945 -1.229602575302124 0.057902336120605 137 91 86
0.466408491134644 -0.998473167419434 0.166299819946289 142 81 86
0.477051734924316 -0.872790098190308 0.116929054260254 139 78 85
0.470136165618896 -0.733085036277771 0.136989593505859 126 68 88
0.477140665054321 -0.510030031204224 0.114233970642090 160 87 106
0.479354619979858 -0.481454491615295 0.094717025756836 163 90 109
0.476362228393555 -0.411018967628479 0.103427886962891 160 89 109
0.477202653884888 0.156335473060608 0.104189872741699 160 89 105
0.484089374542236 0.373167634010315 0.049539566040039 158 92 102
0.478197336196899 0.778737068176270 0.088479995727539 157 85 96
0.482884168624878 -0.570851802825928 0.099928855895996 161 90 106
0.481516599655151 -0.202439069747925 0.092090606689453 159 95 109
0.482048988342285 0.012888193130493 0.124258995056152 154 82 96
0.474908113479614 0.062825679779053 0.139279365539551 143 75 86
0.470627069473267 0.078240156173706 0.155866622924805 146 80 90
0.487897872924805 0.290162801742554 0.067209243774414 160 94 108
0.482228040695190 0.716600358486176 0.119009017944336 153 82 90
0.557222127914429 1.046347856521606 -0.328514099121094 179 157 144
0.550420284271240 1.144849538803101 -0.298192024230957 180 153 131
0.486039876937866 -0.937156677246094 0.122119903564453 127 68 72
0.483887910842896 -0.768629074096680 0.121429443359375 118 65 81
0.481590270996094 -0.191386103630066 0.123338699340820 141 75 87
0.492042779922485 0.270457565784454 0.074352264404297 156 89 106
0.503309726715088 0.511443495750427 0.018553733825684 150 74 87
0.484207630157471 0.590316712856293 0.126567840576172 155 80 87
0.486842632293701 0.640109002590179 0.094206809997559 152 77 82
0.485683679580688 0.688947081565857 0.111747741699219 168 95 104
0.561380147933960 1.087494611740112 -0.320697784423828 174 148 131
0.559756040573120 1.098477602005005 -0.328797340393066 174 147 128
0.569892883300781 1.303935766220093 -0.365027427673340 184 153 135
0.501144170761108 -1.219821214675903 0.055195808410645 141 95 88
0.493933200836182 -1.165500640869141 0.091957092285156 148 88 91
0.486392259597778 -1.078366041183472 0.142975807189941 150 82 87
0.481291294097900 -1.023645401000977 0.158180236816406 135 73 76
0.493287086486816 -0.604478955268860 0.113774299621582 162 94 109
0.491652488708496 -0.161663770675659 0.113634109497070 149 77 91
0.493111610412598 0.093398451805115 0.115810394287109 142 76 88
0.493873596191406 0.242635130882263 0.101093292236328 154 87 104
0.555985927581787 -1.350075721740723 -0.231895446777344 194 173 154
0.492755174636841 -0.727401971817017 0.147530555725098 127 74 94
0.495371103286743 -0.646880745887756 0.116227149963379 146 83 102
0.495524406433105 -0.530443668365479 0.126147270202637 156 88 103
0.503762006759644 -0.366150975227356 0.065668106079102 164 102 121
0.503693342208862 -0.252488255500793 0.069761276245117 142 87 100
0.504269838333130 -0.005352497100830 0.102559089660645 166 93 107
0.498379707336426 0.118751764297485 0.108838081359863 144 76 89
0.498130798339844 0.206663370132446 0.092973709106445 172 103 121
0.512608289718628 0.327105760574341 0.021225929260254 165 99 113
0.519616127014160 0.437473773956299 -0.014107704162598 139 69 80
0.506211280822754 0.562497079372406 0.074936866760254 159 81 94
0.562651634216309 -1.320436954498291 -0.240670204162598 193 172 151
0.560190916061401 -1.278239965438843 -0.226220130920410 190 165 145
0.490413665771484 -1.039805173873901 0.189838409423828 140 75 79
0.490074634552002 -1.013555765151978 0.185063362121582 139 79 81
0.503799915313721 -0.891839265823364 0.107477188110352 154 93 98
0.503681659698486 -0.830974102020264 0.109672546386719 122 65 74
0.505341768264771 -0.689702987670898 0.101569175720215 133 78 99
0.499536514282227 -0.182801365852356 0.115090370178223 152 85 98
0.502701997756958 -0.158949494361877 0.105547904968262 156 84 98
0.501450777053833 -0.146763682365417 0.104987144470215 150 76 93
0.505975008010864 0.000485658645630 0.106833457946777 170 98 112
0.502767562866211 0.103567600250244 0.103699684143066 145 79 91
0.524778842926025 0.547228813171387 -0.007878303527832 160 82 95
0.600947141647339 1.228020310401917 -0.437691688537598 185 154 136
0.596193075180054 1.306946158409119 -0.423050880432129 178 147 127
0.515749692916870 -1.151441574096680 0.062071800231934 160 99 104
0.514498710632324 -1.131073236465454 0.077800750732422 151 85 87
0.512300014495850 -0.772241830825806 0.095037460327148 118 64 78
0.503958225250244 0.046511888504028 0.123380661010742 152 81 96
0.524714469909668 0.486737489700317 0.020039558410645 137 65 77
0.508091926574707 0.586550354957581 0.106072425842285 158 82 94
0.508220434188843 0.729692757129669 0.113436698913574 151 79 91
0.516123056411743 0.748994708061218 0.084836006164551 155 83 95
0.570785999298096 0.938314616680145 -0.265023231506348 173 151 137
0.573904752731323 0.950559318065643 -0.282466888427734 179 157 144
0.576355934143066 0.967659831047058 -0.290201187133789 184 165 151
0.582984447479248 1.086951971054077 -0.325143814086914 178 151 134
0.608908176422119 1.270226240158081 -0.480997085571289 185 154 136
0.595937013626099 1.363977193832397 -0.399550437927246 179 146 127
0.509601116180420 -1.098960399627686 0.135054588317871 142 70 74
0.505239963531494 -1.088123083114624 0.151510238647461 143 73 77
0.499472618103027 -1.031632184982300 0.195188522338867 143 80 82
0.516674995422363 -0.453203797340393 0.088302612304688 165 94 112
0.521986961364746 -0.285686731338501 0.068140983581543 150 100 112
0.516839504241943 0.148580789566040 0.095052719116211 161 90 104
0.520532369613647 0.172152996063232 0.081126213073730 153 82 96
0.525041818618774 0.292055785655975 0.064331054687500 153 86 103
0.600676298141479 1.346481680870056 -0.398619651794434 171 139 118
0.580480337142944 -1.354070663452148 -0.231291770935059 189 168 149
0.574158668518066 -1.268851995468140 -0.207592964172363 195 170 147
0.506188154220581 -1.016924619674683 0.181898117065430 135 73 74
0.511509895324707 -0.972827672958374 0.161868095397949 135 78 78
0.517950773239136 -0.838401794433594 0.120759010314941 129 69 77
0.519456386566162 -0.515499591827393 0.107306480407715 164 93 107
0.520218610763550 0.121500730514526 0.103758811950684 154 86 99
0.523106098175049 0.155211925506592 0.093595504760742 157 86 100
0.529372453689575 0.548921108245850 0.041613578796387 152 74 87
0.592248678207397 1.048840999603271 -0.322923660278320 179 153 140
0.595091342926025 1.165017962455750 -0.342851638793945 191 160 139
0.617906808853149 1.224812388420105 -0.468964576721191 179 148 130
0.582616567611694 -1.288017749786377 -0.237779617309570 184 163 142
0.525627374649048 -1.126203536987305 0.076924324035645 158 92 94
0.522015333175659 -0.659979462623596 0.134854316711426 136 76 96
0.530562877655029 -0.477431178092957 0.073306083679199 163 92 108
0.535242319107056 -0.427885770797729 0.067041397094727 172 100 120
0.528982400894165 -0.201233744621277 0.087819099426270 139 76 90
0.526263713836670 -0.080997943878174 0.108446121215820 177 103 120
0.527895927429199 0.241311788558960 0.081550598144531 155 88 106
0.552963256835938 0.427165865898132 -0.053963661193848 142 74 85
0.522073268890381 0.675884008407593 0.117732048034668 150 77 84
0.587669849395752 0.922842562198639 -0.281659126281738 187 161 150
0.596303462982178 0.991111040115356 -0.313824653625488 173 153 139
0.524188041687012 -1.088533878326416 0.148935317993164 152 81 85
0.527177572250366 -0.921578407287598 0.130323410034180 124 65 69
0.534694910049438 -0.877207994461060 0.103022575378418 149 90 94
0.524869680404663 -0.625178694725037 0.115088462829590 146 82 100
0.538545370101929 -0.559300780296326 0.076683044433594 158 91 105
0.537183523178101 -0.231147408485413 0.067236900329590 133 76 89
0.532077312469482 0.026987433433533 0.115572929382324 155 83 100
0.538013219833374 0.263310194015503 0.067371368408203 156 87 105
0.551850795745850 0.391447901725769 -0.014430999755859 149 81 96
0.528822422027588 0.598239541053772 0.116800308227539 171 95 108
0.602568864822388 0.944142520427704 -0.317142486572266 181 162 147
0.604344844818115 1.016560792922974 -0.325822830200195 170 147 135
0.605366230010986 1.055276274681091 -0.320611953735352 181 155 142
0.604085683822632 1.085508704185486 -0.318187713623047 180 153 136
0.626617193222046 1.250122785568237 -0.464697837829590 182 153 135
0.616967201232910 1.370152950286865 -0.398652076721191 179 147 126
0.592007637023926 -1.355243206024170 -0.234994888305664 196 175 155
0.595850229263306 -1.311867952346802 -0.240479469299316 189 168 147
0.581344604492188 -1.203063488006592 -0.139451026916504 187 151 131
0.541473150253296 -0.386479020118713 0.081498146057129 162 99 116
0.542993783950806 -0.096839070320129 0.080985069274902 170 96 113
0.535125017166138 0.062338590621948 0.116965293884277 154 83 101
0.543440580368042 0.184070348739624 0.074488639831543 165 94 110
0.550617933273315 0.529113590717316 0.034254074096680 150 74 87
0.544313907623291 0.737193286418915 0.066699028015137 180 110 121
0.605637311935425 1.072025895118713 -0.315498352050781 181 154 137
0.573968410491943 -1.188089370727539 -0.088994026184082 184 142 129
0.563266992568970 -1.181860923767090 -0.009134292602539 109 65 56
0.543323516845703 -0.614437341690063 0.111455917358398 147 83 97
0.546646833419800 -0.556832313537598 0.081303596496582 163 95 108
0.546935081481934 -0.130191564559937 0.086216926574707 153 80 97
0.540673017501831 0.637842357158661 0.112671852111816 157 84 93
0.621748208999634 1.275718331336975 -0.364808082580566 180 148 133
0.547253608703613 -0.898313760757446 0.095386505126953 132 75 81
0.544928789138794 -0.796622991561890 0.110895156860352 155 95 107
0.552275419235229 -0.471458196640015 0.079064369201660 165 94 110
0.550624608993530 -0.412032365798950 0.096133232116699 165 96 114
0.552209377288818 -0.303861618041992 0.065848350524902 156 108 120
0.552909851074219 -0.285764575004578 0.067560195922852 172 124 136
0.550753831863403 -0.099620938301086 0.085213661193848 165 91 108
0.554207801818848 0.219513416290283 0.053028106689453 155 84 102
0.567357778549194 0.378746628761292 0.001625061035156 148 77 93
0.568824052810669 0.445284008979797 -0.031564712524414 147 76 90
0.543396711349487 0.673927664756775 0.124125480651855 160 84 93
0.615794658660889 0.989876508712769 -0.306926727294922 183 161 148
0.629902601242065 1.298085212707520 -0.387960433959961 181 149 134
0.627614498138428 1.372498035430908 -0.387099266052246 175 143 122
0.607123374938965 -1.385100126266479 -0.200256347656250 202 181 162
0.598325252532959 -1.234386682510376 -0.167422294616699 184 157 130
0.547607898712158 -1.067413091659546 0.144942283630371 159 90 93
0.554576635360718 -0.996928453445435 0.109882354736328 143 79 80
0.556660413742065 -0.636251091957092 0.099702835083008 136 75 90
0.557780742645264 -0.552958965301514 0.078973770141602 162 94 105
0.561212062835693 -0.351763129234314 0.059458732604980 154 97 112
0.555289268493652 -0.132916212081909 0.094232559204102 160 87 104
0.574429035186768 0.411509633064270 -0.034843444824219 148 77 91
0.565421342849731 0.523878037929535 0.035853385925293 154 77 93
0.561020612716675 0.773349046707153 0.068289756774902 145 75 86
0.620625495910645 1.106752038002014 -0.317229270935059 183 155 133
0.570146083831787 -1.090988636016846 0.040993690490723 155 89 93
0.565883874893188 -0.601391434669495 0.079147338867188 157 94 105
0.565067291259766 -0.576971650123596 0.066587448120117 161 95 107
0.563925743103027 -0.489087224006653 0.074291229248047 164 93 107
0.562201261520386 -0.380817770957947 0.075819969177246 154 90 107
0.565849781036377 -0.209788203239441 0.072771072387695 141 81 93
0.558022022247314 0.022825837135315 0.119060516357422 157 86 102
0.559584856033325 0.181538581848145 0.088094711303711 168 97 113
0.568555116653442 0.530029714107513 0.041497230529785 156 78 94
0.562556743621826 0.727641344070435 0.078801155090332 175 105 115
0.637955665588379 1.260906934738159 -0.390570640563965 182 153 135
0.641188740730286 1.334555268287659 -0.370939254760742 180 147 129
0.623438119888306 -1.254754304885864 -0.230838775634766 194 170 144
0.584333658218384 -1.173676729202271 -0.028597831726074 125 80 74
0.585636377334595 -1.126479148864746 -0.016194343566895 131 72 78
0.558223009109497 -1.062984704971313 0.149041175842285 149 80 83
0.560826063156128 -0.920228242874146 0.114565849304199 124 66 73
0.564374446868896 -0.822153091430664 0.103972434997559 158 98 106
0.567435264587402 -0.754018306732178 0.088222503662109 137 79 90
0.566576242446899 -0.017697453498840 0.091692924499512 182 109 121
0.562756776809692 0.060110330581665 0.118754386901855 147 76 94
0.564895153045654 0.128805518150330 0.106781959533691 147 76 92
0.563630104064941 0.160190701484680 0.095927238464355 165 94 110
0.565477609634399 0.642217397689819 0.114849090576172 150 77 86
0.568430423736572 -0.987163543701172 0.110275268554688 155 91 92
0.578128337860107 -0.445043683052063 0.062732696533203 162 89 106
0.577927350997925 -0.397192597389221 0.090165138244629 160 91 109
0.579769134521484 -0.239213705062866 0.070590972900391 137 82 93
0.568267822265625 -0.186765670776367 0.109989166259766 143 80 94
0.576925277709961 -0.108539938926697 0.070137023925781 163 90 107
0.573465347290039 -0.055544137954712 0.082039833068848 174 100 113
0.597204923629761 0.382583856582642 -0.034718513488770 155 83 97
0.598677635192871 0.449827194213867 -0.063542366027832 150 79 92
0.576405048370361 0.550427198410034 0.050990104675293 161 83 99
0.629550337791443 -1.380230665206909 -0.204191207885742 189 170 153
0.635252952575684 -1.311166524887085 -0.236910820007324 192 171 148
0.574436187744141 -0.901430368423462 0.098498344421387 127 70 76
0.574554204940796 -0.723848819732666 0.110180854797363 127 70 83
0.582267522811890 -0.645993590354919 0.079383850097656 134 75 91
0.584408044815063 -0.566762447357178 0.053925514221191 150 85 95
0.584310770034790 -0.328680634498596 0.068066596984863 142 89 100
0.578939914703369 0.087871313095093 0.109338760375977 160 89 107
0.570013284683228 0.113923311233521 0.114209175109863 155 84 100
0.646168470382690 1.041249275207520 -0.330780982971191 167 141 126
0.651457548141479 1.153753757476807 -0.343482017517090 182 154 132
0.657305240631104 1.278343796730042 -0.378164291381836 185 154 136
0.579265117645264 -1.035909175872803 0.126915931701660 160 92 91
0.583652257919312 -0.674762129783630 0.070223808288574 126 67 84
0.587640762329102 -0.434403657913208 0.061760902404785 164 91 108
0.585191726684570 -0.135298967361450 0.082793235778809 147 79 94
0.605778455734253 0.358203351497650 -0.039090156555176 161 88 105
0.601680517196655 0.518494844436646 -0.010757446289063 146 71 86
0.648297309875488 0.950192511081696 -0.316479682922363 178 159 145
0.656551122665405 1.101460933685303 -0.344159126281738 179 148 129
0.608557701110840 -1.099592447280884 -0.026906967163086 140 82 86
0.584463357925415 -0.791102886199951 0.101736068725586 138 77 85
0.588103771209717 -0.746888041496277 0.096638679504395 130 69 79
0.595817565917969 -0.464803576469421 0.052264213562012 164 92 106
0.596101999282837 -0.416920185089111 0.072412490844727 163 89 106
0.595323324203491 -0.238924503326416 0.070975303649902 136 80 89
0.590030908584595 -0.108738303184509 0.083327293395996 155 84 98
0.583774566650391 0.092979311943054 0.112504005432129 152 81 99
0.597320795059204 0.228597283363342 0.030434608459473 154 83 101
0.604533195495605 0.293885529041290 -0.013233184814453 159 88 104
0.606971979141235 0.321017444133759 -0.045976638793945 154 83 99
0.614715576171875 0.437856554985046 -0.073452949523926 148 78 89
0.605480670928955 0.468559622764587 -0.022936820983887 140 68 80
0.595576286315918 0.596298456192017 0.071589469909668 152 75 91
0.595376729965210 0.735004186630249 0.057707786560059 146 78 87
0.596373319625854 0.792441010475159 0.059349060058594 153 94 100
0.663703441619873 1.370413422584534 -0.378936767578125 168 136 115
0.640723347663879 -1.218489646911621 -0.162970542907715 182 155 129
0.624205589294434 -1.132940053939819 -0.107141494750977 109 64 59
0.590563535690308 -1.000818014144897 0.119217872619629 148 83 81
0.586041927337646 -0.924702405929565 0.116807937622070 126 67 73
0.592625379562378 -0.731908798217773 0.108155250549316 135 75 85
0.597788333892822 -0.541565179824829 0.071495056152344 159 93 103
0.599533319473267 -0.221589922904968 0.070892333984375 135 76 88
0.601013183593750 0.488231003284454 0.055084228515625 157 83 96
0.661421298980713 0.924894809722900 -0.315423965454102 181 163 149
0.663606643676758 1.130057334899902 -0.312306404113770 180 152 130
0.667171239852905 1.279089093208313 -0.343865394592285 170 139 121
0.672301292419434 1.314575791358948 -0.385869979858398 186 155 135
0.621970415115356 -1.097556829452515 -0.040405273437500 140 84 90
0.607034921646118 -1.072304487228394 0.040337562561035 157 91 93
0.600271701812744 -0.689409375190735 0.087497711181641 128 70 83
0.602117300033569 0.026860237121582 0.101895332336426 159 88 102
0.623021125793457 0.387945771217346 -0.038524627685547 150 76 91
0.604336738586426 0.614028215408325 0.056010246276855 162 86 100
0.605643033981323 0.700883567333221 0.057543754577637 149 77 88
0.670205593109131 1.093415260314941 -0.325279235839844 185 154 136
0.670443296432495 1.207221031188965 -0.347638130187988 170 139 118
0.667585730552673 -1.278369426727295 -0.286717414855957 190 171 145
0.608623981475830 -0.895082235336304 0.095946311950684 125 66 72
0.602367639541626 -0.841991662979126 0.107359886169434 150 89 94
0.603867769241333 -0.783331632614136 0.098473548889160 149 84 90
0.613302946090698 -0.526365637779236 0.057266235351563 157 91 101
0.614638328552246 -0.468325138092041 0.028614044189453 154 82 96
0.608658075332642 -0.162696480751038 0.095314979553223 139 77 90
0.606343269348145 -0.109583377838135 0.077002525329590 165 94 108
0.603509902954102 0.010351419448853 0.095046043395996 169 97 109
0.604257106781006 0.198565125465393 0.084856033325195 156 85 101
0.615296363830566 0.225760817527771 0.031839370727539 157 86 104
0.624832153320313 0.296969354152679 -0.028162956237793 158 87 103
0.624070882797241 0.376455008983612 -0.036552429199219 153 79 94
0.675352454185486 -1.293427705764771 -0.315860748291016 195 176 152
0.668143868446350 -1.232625484466553 -0.247512817382813 202 178 152
0.646864652633667 -1.205796003341675 -0.132482528686523 196 167 141
0.616714477539063 -0.571425557136536 0.060270309448242 148 84 97
0.615022420883179 -0.504978299140930 0.052281379699707 155 88 98
0.613923549652100 -0.313409686088562 0.072957038879395 153 98 104
0.610571861267090 -0.280770421028137 0.077021598815918 151 95 101
0.608764886856079 -0.043386578559875 0.096349716186523 171 99 110
0.610808849334717 0.151738882064819 0.085577964782715 171 100 116
0.639345765113831 0.337371945381165 -0.079353332519531 153 79 94
0.636453747749329 0.356915831565857 -0.063936233520508 153 79 94
0.616014242172241 0.555966377258301 0.071620941162109 160 85 98
0.682265758514404 0.883464217185974 -0.332521438598633 184 164 153
0.683084249496460 0.979251146316528 -0.356736183166504 182 156 141
0.685583591461182 0.996086180210114 -0.351551055908203 181 153 139
0.673479914665222 1.160556793212891 -0.299800872802734 179 151 129
0.682548880577087 1.238330960273743 -0.352752685546875 179 148 128
0.685853719711304 1.327794790267944 -0.362636566162109 182 149 130
0.621844530105591 -0.430516242980957 0.044111251831055 168 94 111
0.616606712341309 -0.018129229545593 0.091370582580566 170 98 108
0.613459825515747 0.643561780452728 0.108846664428711 152 78 90
0.630385160446167 -1.083708286285400 0.032574653625488 146 85 88
0.625970840454102 -1.060329914093018 0.079125404357910 155 87 88
0.621320962905884 -1.012146949768066 0.112319946289063 164 96 93
0.617157936096191 -0.963030576705933 0.130780220031738 159 97 96
0.620841264724731 -0.777438163757324 0.099886894226074 144 79 84
0.622892856597900 -0.678597331047058 0.074762344360352 126 68 81
0.623891353607178 -0.110042929649353 0.071642875671387 159 88 102
0.622208595275879 -0.009405732154846 0.086380958557129 162 89 98
0.620474815368652 0.052094459533691 0.106255531311035 163 92 106
0.647079944610596 0.334624111652374 -0.079151153564453 154 79 96
0.644662022590637 0.386934638023376 -0.061765670776367 156 82 96
0.632316589355469 0.677459776401520 0.033023834228516 162 89 100
0.688136339187622 1.019436597824097 -0.322160720825195 187 159 142
0.687473535537720 1.125717759132385 -0.313269615173340 187 159 138
0.696363806724548 1.286974430084229 -0.373591423034668 183 152 132
0.692925572395325 -1.327149391174316 -0.318809509277344 198 181 162
0.651926159858704 -1.109409332275391 -0.058320999145508 125 75 72
0.622036695480347 -0.978316068649292 0.116308212280273 154 86 83
0.634572029113770 -0.499084949493408 0.051888465881348 162 94 105
0.640197396278381 -0.459401369094849 0.033699035644531 162 89 106
0.631833076477051 -0.369833111763000 0.066007614135742 162 95 112
0.626832723617554 -0.075338482856750 0.085363388061523 177 103 116
0.627102851867676 0.013833999633789 0.089205741882324 165 93 104
0.630513310432434 0.145768523216248 0.070378303527832 159 84 104
0.641897559165955 0.263704121112823 0.002265930175781 165 94 110
0.695017218589783 0.901173472404480 -0.331339836120605 182 164 152
0.698449850082397 0.933567285537720 -0.350674629211426 172 153 138
0.644508838653564 -1.085626840591431 0.029520988464355 145 87 89
0.631552338600159 -0.870565891265869 0.108623504638672 133 73 78
0.630427002906799 -0.814356803894043 0.110256195068359 132 72 74
0.637095808982849 -0.644115686416626 0.082678794860840 140 82 96
0.635120153427124 -0.595010519027710 0.077650070190430 134 73 87
0.635924100875854 -0.545125007629395 0.072206497192383 152 88 101
0.628075838088989 0.050541281700134 0.105889320373535 159 88 102
0.649657011032104 0.457205355167389 0.008085250854492 146 72 85
0.636766791343689 0.477332174777985 0.055017471313477 155 81 94
0.634750843048096 0.531244456768036 0.069845199584961 157 83 96
0.700661182403564 1.263419508934021 -0.338731765747070 179 148 127
0.696019291877747 -1.216151952743530 -0.248308181762695 183 162 136
0.640874981880188 -1.041764736175537 0.075310707092285 153 86 85
0.638418078422546 -0.879535913467407 0.093718528747559 133 74 80
0.644428968429565 -0.526773095130920 0.060526847839355 147 81 93
0.643881201744080 -0.343114733695984 0.062067031860352 158 96 109
0.640276551246643 -0.271461963653564 0.089416503906250 155 95 103
0.643483877182007 -0.126091361045837 0.075708389282227 151 83 96
0.637056112289429 -0.052511572837830 0.095031738281250 168 94 106
0.640583395957947 -0.012518882751465 0.088208198547363 155 79 90
0.651752948760986 0.229128241539001 -0.000044822692871 157 86 100
0.640610218048096 0.518944501876831 0.056278228759766 160 86 99
0.638585090637207 0.563443958759308 0.083417892456055 148 74 87
0.707180142402649 0.945708990097046 -0.338146209716797 170 150 131
0.713192701339722 -1.309099674224854 -0.323313713073730 201 185 164
0.708271861076355 -1.283736944198608 -0.314468383789063 195 177 155
0.644101977348328 -0.942512750625610 0.107307434082031 157 91 92
0.644681334495544 -0.793492078781128 0.095293045043945 148 88 90
0.643319249153137 -0.764633178710938 0.090469360351563 145 83 86
0.646099805831909 -0.671857118606567 0.065495491027832 132 74 86
0.645230293273926 -0.543245911598206 0.070716857910156 148 84 98
0.657136201858521 -0.422754645347595 0.030806541442871 164 93 109
0.652531981468201 -0.091586351394653 0.061429977416992 168 97 108
0.642329096794128 0.091902017593384 0.098299026489258 166 93 110
0.662595033645630 0.345273256301880 -0.017458915710449 162 88 105
0.644041657447815 0.535880208015442 0.069538116455078 155 81 94
0.716062426567078 1.013100862503052 -0.346722602844238 184 157 140
0.713464736938477 1.280818462371826 -0.345774650573730 176 145 125
0.698622226715088 -1.210216045379639 -0.211286544799805 190 167 141
0.659196257591248 -1.066358566284180 0.038644790649414 145 84 84
0.662178039550781 -0.391525268554688 0.035879135131836 159 88 106
0.651267647743225 -0.147662878036499 0.089088439941406 151 86 100
0.658471822738647 0.206068277359009 0.044192314147949 168 96 110
0.667489886283875 0.261247396469116 -0.003792762756348 168 96 110
0.650649785995483 0.631999015808105 0.077640533447266 155 82 93
0.724491953849792 0.780574083328247 -0.378502845764160 180 127 127
0.698882222175598 -1.200649976730347 -0.188212394714355 193 167 142
0.678238630294800 -1.121698141098022 -0.038043022155762 122 75 67
0.653987526893616 -0.982764005661011 0.113433837890625 153 86 79
0.654512047767639 -0.717852354049683 0.085930824279785 127 66 75
0.664531946182251 -0.469628572463989 0.027937889099121 152 84 97
0.657629966735840 -0.357969164848328 0.055268287658691 157 90 107
0.652993202209473 -0.278576135635376 0.096831321716309 160 99 107
0.653441309928894 -0.198260307312012 0.090173721313477 157 95 108
0.654306292533875 -0.008692741394043 0.082043647766113 162 89 100
0.651670813560486 0.597021758556366 0.101489067077637 159 86 97
0.652340292930603 0.608992636203766 0.096302986145020 152 79 90
0.718284130096436 1.104828596115112 -0.300733566284180 180 151 133
0.720510005950928 1.142915368080139 -0.330335617065430 181 150 130
0.725900173187256 1.236506938934326 -0.354375839233398 183 152 131
0.723635911941528 1.342367291450500 -0.323183059692383 173 141 120
0.722262144088745 1.372946619987488 -0.320007324218750 181 149 128
0.667136311531067 -0.572427749633789 0.056815147399902 127 66 81
0.671980619430542 -0.413583040237427 0.028562545776367 177 104 121
0.662504792213440 -0.243729472160339 0.088523864746094 164 101 112
0.663831114768982 -0.129145622253418 0.072831153869629 155 87 100
0.669497966766357 -0.068655610084534 0.051507949829102 166 92 105
0.658587694168091 0.026262521743774 0.088687896728516 154 81 94
0.661116480827332 0.099276065826416 0.087364196777344 156 82 97
0.661644458770752 0.574684441089630 0.097842216491699 155 83 95
0.738562464714050 0.857068657875061 -0.392652511596680 180 157 149
0.729136586189270 0.885349512100220 -0.359485626220703 190 172 160
0.729007005691528 0.946265995502472 -0.334507942199707 181 159 138
0.713764786720276 1.045872449874878 -0.257395744323730 184 156 137
0.721794962882996 1.068412661552429 -0.292877197265625 178 150 129
0.730815410614014 1.203554034233093 -0.361590385437012 183 152 131
0.731422424316406 -1.351996183395386 -0.306673049926758 199 181 167
0.703737735748291 -1.160452365875244 -0.124623298645020 198 166 141
0.672876358032227 -0.662456512451172 0.047021865844727 125 67 77
0.679181933403015 -0.621298789978027 0.020085334777832 124 68 81
0.674027562141418 -0.604562520980835 0.026530265808105 127 70 84
0.669320225715637 -0.058917164802551 0.063486099243164 155 80 93
0.674350261688232 0.295482277870178 0.039859771728516 155 81 98
0.679580807685852 0.388874948024750 -0.006627082824707 155 83 95
0.670998573303223 0.517838239669800 0.070459365844727 164 90 103
0.741069793701172 0.813749074935913 -0.397668838500977 182 148 143
0.736152887344360 1.170995116233826 -0.328745841979980 184 153 133
0.669074177742004 -0.857331037521362 0.104919433593750 133 71 76
0.671852946281433 -0.838742733001709 0.108678817749023 134 72 77
0.670130014419556 -0.810318231582642 0.104537963867188 143 82 87
0.675751566886902 -0.697069883346558 0.057610511779785 126 65 73
0.675202012062073 -0.551266670227051 0.054758071899414 138 77 92
0.668110489845276 0.057442426681519 0.100853919982910 171 99 113
0.678422093391418 0.356977581977844 0.049353599548340 152 78 94
0.676214218139648 0.467266440391541 0.045200347900391 157 83 96
0.753684520721436 0.831101298332214 -0.420354843139648 182 154 148
0.740098714828491 1.104564666748047 -0.331857681274414 184 155 137
0.740291714668274 1.280813217163086 -0.339983940124512 185 154 133
0.743795275688171 -1.315054655075073 -0.333563804626465 185 168 150
0.681751012802124 -1.040703535079956 0.060594558715820 165 101 98
0.679155588150024 -0.018989086151123 0.077729225158691 161 87 102
0.680114865303040 0.032192349433899 0.088523864746094 155 81 96
0.675908327102661 0.125613212585449 0.080315589904785 164 88 101
0.677624106407166 0.148571848869324 0.082810401916504 178 102 114
0.685754656791687 0.405383944511414 0.044848442077637 147 77 88
0.678503394126892 0.498332142829895 0.069598197937012 165 91 104
0.739118456840515 1.019963622093201 -0.297605514526367 179 152 133
0.748481988906860 1.160788536071777 -0.352746963500977 191 160 140
0.738430976867676 1.314556837081909 -0.312475204467773 169 137 116
0.722819685935974 -1.182561635971069 -0.163246154785156 199 173 146
0.720875501632690 -1.107733011245728 -0.171199798583984 183 142 124
0.682339787483215 -0.749033927917480 0.083862304687500 132 72 74
0.758741140365601 0.871501743793488 -0.379153251647949 176 155 145
0.749852776527405 0.946075081825256 -0.363152503967285 183 159 139
0.753864765167236 1.219561934471130 -0.358162879943848 177 149 128
0.750018596649170 -1.251536130905151 -0.299655914306641 184 163 142
0.742627263069153 -1.199783086776733 -0.264145851135254 191 166 144
0.712080717086792 -1.089491844177246 -0.073088645935059 119 72 62
0.684307217597961 -0.952313423156738 0.108265876770020 165 97 86
0.691509246826172 -0.873051404953003 0.089475631713867 139 72 76
0.693140506744385 -0.569241166114807 0.047872543334961 133 75 90
0.696240901947021 -0.528538107872009 0.034463882446289 138 77 93
0.692704081535339 -0.403577923774719 0.047770500183105 156 83 102
0.690085053443909 -0.204808473587036 0.094015121459961 151 89 97
0.689795613288879 0.186333417892456 0.069456100463867 170 97 108
0.694402933120728 0.227732658386230 0.053593635559082 154 80 93
0.690852642059326 0.407527446746826 0.075167655944824 150 80 91
0.697280883789063 0.440966486930847 0.040968894958496 150 79 91
0.691398978233337 0.511161327362061 0.083684921264648 171 97 110
0.767420172691345 0.849103927612305 -0.420370101928711 181 158 150
0.759726762771606 0.909902870655060 -0.384327888488770 177 158 141
0.759268999099731 1.149536013603210 -0.363514900207520 182 151 133
0.752659201622009 1.274761319160461 -0.327835083007813 178 147 126
0.745580315589905 1.344557762145996 -0.293449401855469 174 142 121
0.694244265556335 -0.589237689971924 0.065164566040039 131 74 91
0.698599338531494 -0.376604676246643 0.056495666503906 162 90 110
0.699117898941040 -0.340494751930237 0.077863693237305 162 91 109
0.693075776100159 -0.166486978530884 0.093993186950684 141 78 87
0.694226503372192 0.277113556861877 0.077242851257324 161 87 104
0.748024582862854 0.644684612751007 -0.242324829101563 146 76 84
0.766040563583374 0.867902040481567 -0.385196685791016 180 157 149
0.756133556365967 1.364779353141785 -0.282374382019043 179 144 124
0.763248801231384 -1.310749292373657 -0.314403533935547 194 177 161
0.741900324821472 -1.122233867645264 -0.187071800231934 183 149 122
0.703685522079468 -1.035500049591064 0.047524452209473 164 102 98
0.703858852386475 -0.917397975921631 0.072003364562988 173 105 97
0.702657461166382 -0.885725975036621 0.079256057739258 147 79 80
0.699010372161865 -0.713691353797913 0.065944671630859 132 71 78
0.703599214553833 -0.674589395523071 0.051445007324219 123 64 71
0.703698873519897 -0.543909907341003 0.074480056762695 136 75 91
0.712404251098633 -0.475976705551147 0.017395019531250 146 82 96
0.709468483924866 -0.440390467643738 0.045185089111328 151 82 100
0.704870343208313 -0.091821670532227 0.050835609436035 153 81 92
0.701770782470703 -0.008883357048035 0.067719459533691 159 85 100
0.698254227638245 0.021724820137024 0.080161094665527 160 86 101
0.703348875045776 0.115129232406616 0.082645416259766 167 91 103
0.700714468955994 0.148084878921509 0.074613571166992 169 93 103
0.770662307739258 0.998303234577179 -0.380298614501953 170 143 126
0.770818591117859 1.097982764244080 -0.372643470764160 178 150 130
0.715863347053528 -0.519444108009338 0.028213500976563 134 73 88
0.714898347854614 -0.468180537223816 0.026229858398438 141 75 89
0.709061861038208 -0.139836192131042 0.079868316650391 148 82 92
0.706362366676331 0.136150121688843 0.080709457397461 167 91 101
0.768287062644958 1.056167960166931 -0.334547996520996 186 158 139
0.767513275146484 1.249202370643616 -0.320271492004395 178 150 128
0.764706492424011 -1.375831127166748 -0.262654304504395 190 172 158
0.716816186904907 -1.067036628723145 0.068870544433594 133 76 71
0.710117459297180 -0.892880678176880 0.085077285766602 150 81 82
0.721918702125549 -0.618178367614746 0.022023200988770 119 65 78
0.715484142303467 -0.421624660491943 0.054321289062500 163 94 112
0.714263677597046 -0.398057222366333 0.063705444335938 163 91 110
0.713643312454224 -0.363890528678894 0.067584991455078 159 86 105
0.711488008499146 -0.210561990737915 0.093678474426270 151 86 96
0.706217885017395 0.394170045852661 0.113294601440430 152 82 95
0.781187534332275 0.899361133575439 -0.377309799194336 178 156 142
0.783197879791260 1.185793757438660 -0.369793891906738 171 143 122
0.781188249588013 1.208170175552368 -0.373480796813965 181 153 132
0.776250004768372 -1.330689668655396 -0.316926002502441 201 184 168
0.712215542793274 -0.876784086227417 0.115151405334473 150 81 84
0.709417819976807 -0.808956384658813 0.111745834350586 130 69 77
0.727759718894958 -0.647876977920532 0.028594970703125 125 66 77
0.711620688438416 -0.573417782783508 0.088719367980957 122 67 82
0.719076156616211 0.187437653541565 0.059428215026855 166 93 102
0.715865135192871 0.279309034347534 0.080441474914551 158 84 99
0.787812948226929 1.127044200897217 -0.376118659973145 175 148 129
0.777106761932373 1.287670969963074 -0.326255798339844 183 151 130
0.728027343750000 -1.097758769989014 0.047480583190918 110 62 50
0.717241644859314 -1.032327413558960 0.116548538208008 156 93 88
0.717112421989441 -0.966195106506348 0.108450889587402 169 101 91
0.718058586120605 -0.835341453552246 0.125117301940918 140 75 81
0.725412130355835 -0.739647865295410 0.068303108215332 125 64 71
0.731542587280273 -0.626090168952942 0.025135040283203 118 63 76
0.725182056427002 -0.500831961631775 0.036281585693359 140 79 94
0.726625561714172 -0.402122735977173 0.058215141296387 155 86 104
0.719153046607971 -0.239469885826111 0.092982292175293 155 87 100
0.724879503250122 -0.023068785667419 0.070768356323242 160 86 99
0.724410772323608 0.002950668334961 0.070411682128906 165 91 107
0.719332575798035 0.404467105865479 0.117220878601074 151 82 95
0.721074819564819 0.542390704154968 0.085780143737793 153 85 98
0.749676108360291 0.604674816131592 -0.095638275146484 133 67 75
0.773246049880981 0.646136403083801 -0.264121055603027 149 82 89
0.791000366210938 0.844697952270508 -0.368227005004883 181 160 152
0.789915800094604 1.116698145866394 -0.373279571533203 168 141 122
0.780191183090210 1.327752590179443 -0.286085128784180 182 150 127
0.780122280120850 -1.204579830169678 -0.267572402954102 183 161 138
0.729385256767273 -0.683387875556946 0.078593254089355 130 69 76
0.733550548553467 -0.652753829956055 0.063132286071777 128 69 81
0.724976539611816 -0.558976054191589 0.100185394287109 124 70 84
0.723378896713257 -0.328630685806274 0.104031562805176 163 92 108
0.722389578819275 -0.309054732322693 0.107731819152832 154 83 99
0.735708236694336 -0.079459309577942 0.045088768005371 158 85 96
0.725036740303040 0.037740826606750 0.090175628662109 164 90 107
0.727346897125244 0.067123293876648 0.092772483825684 159 83 98
0.725889205932617 0.084393382072449 0.100427627563477 168 91 106
0.728047847747803 0.102957606315613 0.082111358642578 154 78 91
0.725412130355835 0.343944489955902 0.086315155029297 163 90 108
0.800867438316345 0.941200852394104 -0.379010200500488 171 149 130
0.801773190498352 0.980884194374084 -0.390171051025391 179 154 134
0.783455371856689 1.348745584487915 -0.271876335144043 178 143 121
0.794694781303406 -1.361417770385742 -0.301386833190918 203 186 170
0.792794823646545 -1.274954319000244 -0.300380706787109 184 167 149
0.730235695838928 -0.958930492401123 0.092941284179688 173 107 96
0.731187939643860 -0.907512664794922 0.080347061157227 164 95 88
0.727268218994141 -0.876106739044189 0.112995147705078 147 79 81
0.741234779357910 -0.478336811065674 0.032798767089844 143 81 96
0.738682508468628 -0.471270680427551 0.042739868164063 132 70 85
0.732253432273865 -0.157407641410828 0.098064422607422 162 95 105
0.733927130699158 0.172514677047729 0.069386482238770 164 91 98
0.735982418060303 0.224165081977844 0.073360443115234 159 85 98
0.736075401306152 0.417588472366333 0.061356544494629 152 81 95
0.761096596717834 0.583740592002869 -0.089396476745605 139 71 82
0.805281162261963 0.786148309707642 -0.395542144775391 175 144 139
0.805768370628357 0.914632797241211 -0.399919509887695 176 154 140
0.792746424674988 1.044909834861755 -0.309558868408203 191 164 145
0.801173567771912 1.169098496437073 -0.377313613891602 178 149 131
0.807107090950012 1.191405653953552 -0.386497497558594 180 151 133
0.796202898025513 1.253872394561768 -0.331366539001465 175 147 126
0.791594743728638 1.290489912033081 -0.316116333007813 176 144 123
0.795731425285339 -1.220457315444946 -0.291965484619141 186 165 146
0.746906399726868 -0.415336132049561 0.032279968261719 156 89 106
0.732612609863281 -0.283593893051147 0.101808547973633 155 83 97
0.794929265975952 0.660100340843201 -0.288626670837402 147 85 90
0.811001658439636 1.136336684226990 -0.385021209716797 174 145 127
0.794814467430115 1.332880496978760 -0.279539108276367 184 149 127
0.740070223808289 -1.018905162811279 0.109190940856934 162 98 93
0.738292813301086 -0.893025875091553 0.092989921569824 157 87 86
0.739892363548279 -0.813642024993896 0.113377571105957 134 72 79
0.742385268211365 -0.779792308807373 0.086660385131836 130 71 77
0.747426033020020 -0.725055456161499 0.059852600097656 130 69 76
0.743963003158569 -0.623220205307007 0.093275070190430 118 62 74
0.752368807792664 -0.450459241867065 0.019397735595703 130 68 83
0.738324880599976 -0.300712943077087 0.104501724243164 161 87 102
0.744934678077698 -0.222038984298706 0.084224700927734 161 90 104
0.749305725097656 0.140572309494019 0.055506706237793 169 93 103
0.747352004051208 0.191571593284607 0.053083419799805 169 96 105
0.746745228767395 0.467376112937927 0.055679321289063 160 88 102
0.829210638999939 0.720852434635162 -0.469762802124023 167 120 120
0.819387078285217 0.751004636287689 -0.417717933654785 183 147 144
0.812242031097412 1.106754660606384 -0.366408348083496 181 154 135
0.812453150749207 1.192732214927673 -0.386144638061523 183 154 137
0.814286231994629 1.222280502319336 -0.371941566467285 182 153 135
0.803542256355286 1.298427581787109 -0.313274383544922 179 147 126
0.811469197273254 -1.330623149871826 -0.336541175842285 202 185 169
0.792882919311523 -1.050510644912720 -0.199919700622559 180 134 118
0.751322269439697 -0.964437007904053 0.067916870117188 172 105 97
0.751764059066772 -0.925259351730347 0.071046829223633 160 93 84
0.753079533576965 -0.734306335449219 0.054100036621094 133 72 79
0.751605510711670 -0.687101483345032 0.088552474975586 136 75 83
0.748692274093628 -0.185378313064575 0.090633392333984 152 84 95
0.747827768325806 -0.040049433708191 0.096755027770996 161 87 100
0.745532989501953 0.025860071182251 0.103383064270020 178 101 118
0.747287988662720 0.267996728420258 0.112462043762207 162 87 100
0.751281976699829 0.348112702369690 0.073739051818848 166 93 110
0.804217576980591 1.306962132453918 -0.292557716369629 178 146 125
0.819332957267761 -1.284007787704468 -0.349924087524414 196 179 163
0.806062936782837 -1.166189193725586 -0.245977401733398 194 170 146
0.751582145690918 -0.840970993041992 0.134737968444824 140 74 76
0.747996330261230 -0.602382063865662 0.129803657531738 121 66 80
0.755808234214783 -0.537098169326782 0.092594146728516 127 70 85
0.756892681121826 -0.336537599563599 0.059088706970215 169 96 111
0.753777742385864 -0.195303440093994 0.089797019958496 161 90 104
0.754040956497192 -0.117678046226501 0.073737144470215 159 89 99
0.753579854965210 -0.059067368507385 0.083008766174316 156 82 95
0.747303128242493 0.087696313858032 0.107262611389160 162 86 99
0.826767683029175 0.904520928859711 -0.412056922912598 174 152 140
0.803851485252380 -1.398996591567993 -0.182969093322754 194 178 160
0.819856643676758 -1.355221509933472 -0.308223724365234 194 178 160
0.823478698730469 -1.321870088577271 -0.331105232238770 199 184 165
0.758868813514709 -0.955588579177856 0.060497283935547 168 101 94
0.760310411453247 -0.513769745826721 0.083547592163086 124 68 81
0.764241218566895 0.118014693260193 0.058867454528809 171 95 107
0.761014103889465 0.311930119991302 0.090901374816895 158 84 99
0.836210727691650 0.847870826721191 -0.416729927062988 158 138 130
0.836924791336060 0.924776554107666 -0.430271148681641 177 155 144
0.822753190994263 1.275645494461060 -0.318287849426270 169 138 117
0.828370213508606 -1.287423610687256 -0.323447227478027 199 182 166
0.825688600540161 -1.250489234924316 -0.319544792175293 183 166 148
0.770370602607727 -1.025076389312744 0.049242973327637 133 74 73
0.765397191047668 -0.664329409599304 0.077576637268066 129 69 77
0.769159793853760 -0.285956978797913 0.080421447753906 165 89 101
0.764508485794067 -0.247677326202393 0.086783409118652 152 78 95
0.761866807937622 -0.161910057067871 0.087381362915039 151 82 93
0.766013622283936 -0.102890372276306 0.069002151489258 165 92 103
0.769500136375427 0.010344743728638 0.077723503112793 169 92 108
0.766612648963928 0.158406972885132 0.086674690246582 162 89 98
0.760921716690063 0.394712984561920 0.118795394897461 147 77 93
0.763490200042725 0.404520034790039 0.108741760253906 147 77 93
0.846104621887207 0.746242463588715 -0.441122055053711 183 152 147
0.845124721527100 0.801917672157288 -0.449005126953125 180 156 146
0.845250368118286 0.892964363098145 -0.437884330749512 176 156 147
0.833741545677185 1.239168524742126 -0.349665641784668 175 147 126
0.831716179847717 1.249886870384216 -0.353531837463379 173 145 124
0.828860998153687 -1.219725847244263 -0.296751976013184 190 171 154
0.819308876991272 -1.154836893081665 -0.240552902221680 181 157 131
