ply
format ascii 1.0
element vertex 739
property double x
property double y
property double z
property uchar red
property uchar green
property uchar blue
end_header
-1.105636596679688 -2.075645208358765 0.015371322631836 73 9 9
-1.095275402069092 -1.679133892059326 -0.032226562500000 74 9 13
-1.059864044189453 -1.220671892166138 -0.212146759033203 66 6 6
-1.077782630920410 0.315714836120605 -0.036539077758789 95 18 24
-1.096526622772217 2.995268106460571 -0.041597366333008 146 82 55
-1.059616565704346 -3.064023017883301 -0.052995681762695 153 103 68
-1.075598716735840 -2.904517412185669 0.039644241333008 165 112 78
-1.067650794982910 -1.600996971130371 -0.016986846923828 76 14 17
-1.040794849395752 -0.557613372802734 -0.167724609375000 81 15 21
-1.087334156036377 0.604821622371674 0.054637908935547 96 21 26
-1.140598773956299 1.173002958297729 0.442558288574219 96 18 18
-1.023546695709229 2.364069700241089 -0.206031799316406 137 75 52
-1.077535152435303 2.892823219299316 -0.054796218872070 148 84 57
-0.994855403900146 -1.005900144577026 -0.324527740478516 66 8 6
-1.011909008026123 -0.740102410316467 -0.299497604370117 84 23 28
-1.048419952392578 0.103750169277191 -0.067277908325195 100 24 28
-1.047762393951416 0.299681961536407 -0.040466308593750 92 15 21
-1.122271537780762 0.945346415042877 0.341457366943359 83 7 9
-1.124150753021240 1.210016012191772 0.453392028808594 98 20 18
-1.022482395172119 1.997348070144653 -0.094030380249023 126 68 44
-0.999520301818848 -0.378298163414001 -0.153295516967773 98 23 30
-1.012291908264160 -0.127941757440567 -0.080663681030273 97 18 24
-1.005319595336914 -0.033091127872467 -0.128337860107422 95 18 24
-1.018333435058594 0.438143730163574 -0.014631271362305 93 18 23
-1.100360870361328 1.377435922622681 0.510711669921875 103 28 22
-1.100533485412598 1.618851423263550 0.499214172363281 139 76 58
-1.043716907501221 2.470747947692871 0.100257873535156 134 72 49
-1.010910511016846 -2.802520751953125 -0.003654479980469 162 109 75
-0.969944000244141 -2.659961223602295 -0.125450134277344 159 106 72
-0.998794078826904 -1.966464042663574 0.005739212036133 99 33 34
-0.980006217956543 -1.664983272552490 -0.016639709472656 77 12 16
-0.970351696014404 -0.205189600586891 -0.019201278686523 107 28 34
-1.022931575775146 1.118197679519653 0.296205520629883 88 13 12
-0.963638305664063 1.909044265747070 -0.122695922851563 132 74 50
-0.922478199005127 2.123660087585449 -0.219009399414063 134 74 50
-0.925064086914063 -2.337511062622070 -0.139383316040039 103 42 24
-0.969435214996338 -1.434140682220459 0.107202529907227 81 19 24
-0.900053977966309 -0.849511384963989 -0.270681381225586 86 24 27
-0.905478954315186 -0.436850577592850 -0.216886520385742 93 18 25
-1.022280693054199 1.772059440612793 0.421686172485352 136 78 56
-0.932868480682373 -1.628130912780762 -0.045944213867188 73 7 9
-0.885078907012939 -0.497078061103821 -0.206218719482422 99 26 33
-0.938834190368652 0.311701774597168 0.036268234252930 85 10 15
-0.877100467681885 2.024505615234375 -0.239778518676758 135 77 53
-0.905030727386475 2.213157653808594 -0.109565734863281 133 73 49
-0.959410190582275 2.757757663726807 0.190011978149414 135 71 44
-0.891445636749268 -2.120978832244873 -0.057802200317383 80 11 10
-0.912264823913574 -1.996719837188721 -0.006774902343750 99 29 29
-0.873702049255371 -0.914257526397705 -0.215890884399414 87 25 28
-0.895267009735107 0.154337584972382 -0.026079177856445 87 11 17
-0.962574005126953 0.839747607707977 0.269376754760742 76 6 8
-0.988774299621582 1.887403726577759 0.438819885253906 131 75 51
-0.881717205047607 -1.964781761169434 0.038398742675781 106 34 35
-0.859447956085205 -0.967053771018982 -0.203374862670898 79 18 23
-0.876935958862305 0.448009729385376 0.011573791503906 90 18 22
-0.956390380859375 1.331373453140259 0.393310546875000 91 15 15
-0.876973152160645 2.480064868927002 -0.031524658203125 134 74 50
-0.896609306335449 2.534026861190796 0.108642578125000 139 79 55
-0.858338832855225 -1.798071384429932 0.024005889892578 76 4 8
-0.875826835632324 -1.125023841857910 0.017736434936523 70 14 15
-0.859396457672119 -0.124549001455307 -0.026216506958008 93 14 20
-0.870738506317139 0.595883071422577 0.042427062988281 83 11 15
-0.895720481872559 0.762589871883392 0.226760864257813 74 5 8
-0.853874683380127 -1.989688396453857 0.117303848266602 92 20 21
-0.852742195129395 0.633914887905121 0.099773406982422 80 8 12
-0.883661270141602 0.996428787708282 0.304719924926758 74 6 7
-0.823418617248535 2.226322889328003 -0.011541366577148 135 75 51
-0.835780143737793 2.906664133071899 0.008718490600586 137 73 46
-0.778259754180908 -2.951108694076538 -0.231994628906250 160 108 71
-0.816045761108398 -2.175743818283081 0.034879684448242 82 14 10
-0.886452198028564 1.896532773971558 0.488483428955078 132 74 51
-0.735164642333984 -2.810331821441650 -0.247617721557617 158 105 71
-0.775853157043457 -2.522887468338013 -0.062915802001953 146 92 59
-0.794143676757813 -2.416217803955078 -0.031379699707031 132 75 52
-0.775739669799805 -1.627509355545044 0.018699645996094 73 7 9
-0.803194046020508 -1.433144330978394 0.107540130615234 68 7 10
-0.782032012939453 -1.079397201538086 -0.028238296508789 76 20 23
-0.747995376586914 -0.953143298625946 -0.162673950195313 80 18 23
-0.787471771240234 -0.035426706075668 -0.012308120727539 89 13 16
-0.812281131744385 0.403617680072784 0.097871780395508 82 11 15
-0.858539104461670 1.453139066696167 0.412010192871094 83 12 5
-0.800304889678955 1.971916913986206 0.046165466308594 128 70 46
-0.756657600402832 2.899073839187622 -0.129863739013672 140 76 49
-0.773395061492920 -2.466406106948853 -0.023084640502930 146 90 64
-0.768427848815918 -1.333824038505554 0.108238220214844 64 5 5
-0.783725261688232 0.498620867729187 0.124902725219727 78 7 11
-0.798184394836426 0.836489140987396 0.219211578369141 76 10 12
-0.807113170623779 0.996529161930084 0.323295593261719 73 7 8
-0.823771953582764 1.233418703079224 0.348024368286133 89 15 16
-0.755232334136963 2.320914983749390 -0.070232391357422 139 77 54
-0.749454498291016 2.684864044189453 -0.112585067749023 131 69 44
-0.706494808197021 -3.071351289749146 -0.195199966430664 166 113 79
-0.751899242401123 -2.234186649322510 0.005508422851563 84 18 9
-0.719730854034424 -0.951855301856995 -0.144426345825195 79 17 22
-0.705406188964844 -0.390438199043274 -0.168352127075195 95 16 21
-0.720235824584961 -0.245449721813202 -0.066698074340820 97 16 22
-0.752330303192139 0.111231982707977 0.034547805786133 88 13 17
-0.750555515289307 0.264402329921722 0.076780319213867 92 20 24
-0.729924201965332 2.957483291625977 -0.055410385131836 140 76 49
-0.704720973968506 -0.559977054595947 -0.033304214477539 87 10 16
-0.714864730834961 -0.151157975196838 0.001707077026367 89 10 15
-0.762806892395020 0.754627525806427 0.326082229614258 74 8 10
-0.768755435943604 1.483963251113892 0.396125793457031 101 30 24
-0.714427471160889 2.131552219390869 -0.065811157226563 139 79 58
-0.720562458038330 2.556463956832886 0.052883148193359 133 71 48
-0.714990615844727 -1.355360150337219 0.092964172363281 66 7 9
-0.698009014129639 -1.143622040748596 0.017221450805664 69 9 11
-0.675116539001465 -0.764196515083313 -0.061565399169922 108 35 42
-0.703793048858643 1.964440822601318 -0.008621215820313 136 78 56
-0.692951202392578 2.229685068130493 0.079641342163086 131 71 47
-0.662788867950439 2.418629646301270 -0.158987045288086 138 78 54
-0.653893470764160 2.781424283981323 -0.227222442626953 137 73 48
-0.656732082366943 -0.497031539678574 -0.091159820556641 91 14 20
-0.731554508209229 0.747979819774628 0.333393096923828 74 8 10
-0.720418930053711 1.210566520690918 0.294569015502930 83 11 12
-0.605174064636230 -3.069405078887939 -0.264028549194336 161 109 72
-0.645545005798340 -1.310168504714966 0.083959579467773 65 6 10
-0.623095512390137 -0.685007631778717 -0.166337966918945 94 19 26
-0.617531776428223 -0.634706676006317 -0.163909912109375 104 29 36
-0.677255153656006 1.156690359115601 0.216003417968750 76 5 6
-0.713473320007324 1.846632242202759 0.502191543579102 143 83 60
-0.670534610748291 -2.021764278411865 0.273807525634766 90 20 22
-0.695028305053711 1.492724180221558 0.430913925170898 89 19 14
-0.687258243560791 1.703193902969360 0.409416198730469 138 73 58
-0.601338863372803 2.745229959487915 -0.157989501953125 131 67 42
-0.607332229614258 -2.415476322174072 0.021797180175781 116 58 37
-0.575776576995850 -0.925412297248840 -0.132061004638672 84 14 22
-0.568261623382568 -0.245891511440277 -0.083786010742188 85 10 14
-0.589892387390137 -0.093554466962814 -0.101034164428711 89 15 19
-0.657781124114990 1.356159448623657 0.464578628540039 80 10 11
-0.591224670410156 1.943276882171631 0.005840301513672 136 78 55
-0.611964702606201 2.324123144149780 0.151380538940430 137 76 53
-0.543824672698975 -3.098157882690430 -0.168506622314453 167 115 78
-0.555571079254150 -2.561214447021484 -0.035778045654297 141 87 55
-0.604444980621338 -2.125303983688354 0.156608581542969 94 26 25
-0.602489471435547 -1.717110157012939 0.154342651367188 79 14 18
-0.579471111297607 -1.072442531585693 -0.005203247070313 88 25 29
-0.555871486663818 -0.411151945590973 -0.057104110717773 85 8 14
-0.591006755828857 0.368118345737457 0.174688339233398 76 5 9
-0.629017829895020 1.212782144546509 0.400098800659180 77 7 7
-0.525703191757202 2.392496585845947 -0.312126159667969 137 75 50
-0.489491701126099 -2.732530593872070 -0.391580581665039 148 94 58
-0.562389612197876 -2.260079622268677 0.061771392822266 86 20 11
-0.549712419509888 0.019508868455887 0.025762557983398 88 17 21
-0.612069606781006 0.763056814670563 0.379920959472656 74 8 10
-0.491388797760010 1.983494281768799 -0.292343139648438 140 82 58
-0.553684711456299 2.187788486480713 -0.020174026489258 135 75 51
-0.490903377532959 2.866334915161133 -0.283164978027344 134 70 45
-0.509938955307007 2.927073001861572 -0.210056304931641 141 75 51
-0.541902780532837 -1.321723818778992 0.058118820190430 69 8 13
-0.535225391387939 -0.461158245801926 0.018970489501953 89 12 18
-0.576042175292969 0.667490422725677 0.349081039428711 74 5 8
-0.605740547180176 1.295299530029297 0.481544494628906 81 14 15
-0.618225097656250 1.743062257766724 0.560928344726563 141 78 62
-0.553096294403076 1.953809499740601 0.183532714843750 142 84 60
-0.461444377899170 -2.955450534820557 -0.232316970825195 152 97 62
-0.486585140228271 -2.404933214187622 -0.078363418579102 130 73 51
-0.531462669372559 -1.862650394439697 0.150449752807617 75 9 11
-0.528214931488037 -1.469631195068359 0.207967758178711 73 12 17
-0.537884712219238 0.394396543502808 0.280467987060547 74 5 8
-0.468607425689697 2.252712965011597 -0.205043792724609 139 79 53
-0.460818290710449 2.277174711227417 -0.275932312011719 135 73 48
-0.435186386108398 2.602960348129272 -0.445884704589844 134 70 45
-0.423450946807861 -3.092066049575806 -0.225334167480469 163 109 71
-0.395964145660400 -2.653797864913940 -0.430267333984375 153 99 63
-0.542534351348877 1.526836633682251 0.489768981933594 89 20 13
-0.443941116333008 3.019703149795532 -0.189563751220703 137 70 44
-0.476116180419922 -1.574284076690674 0.130285263061523 67 6 11
-0.509952306747437 0.682344257831573 0.410255432128906 80 11 14
-0.490081548690796 0.945182144641876 0.299568176269531 77 8 11
-0.538537979125977 1.751939058303833 0.526939392089844 135 72 58
-0.544477224349976 1.899466037750244 0.590883255004883 152 92 70
-0.362156391143799 2.698452472686768 -0.454128265380859 130 66 41
-0.412951707839966 2.941633701324463 -0.218303680419922 144 77 51
-0.382620573043823 -3.090109348297119 -0.243030548095703 167 113 75
-0.441257476806641 -1.446640968322754 0.104137420654297 77 16 23
-0.479762315750122 0.587209045886993 0.368614196777344 84 15 18
-0.275242090225220 2.381197452545166 -0.898561477661133 136 72 45
-0.321917772293091 2.486083269119263 -0.738792419433594 134 70 45
-0.382493972778320 2.851861715316772 -0.361238479614258 135 69 45
-0.333689689636230 -2.730854034423828 -0.380464553833008 156 102 66
-0.338434934616089 -2.644527196884155 -0.445152282714844 153 99 63
-0.434412717819214 -1.754241466522217 0.140836715698242 75 13 15
-0.403069734573364 -1.026669979095459 -0.062520980834961 83 12 16
-0.436157226562500 1.086193561553955 0.162818908691406 73 7 9
-0.467499732971191 1.528607368469238 0.463747024536133 99 30 25
-0.320441246032715 2.773918151855469 -0.531499862670898 136 72 47
-0.400469779968262 -1.621455430984497 0.222276687622070 66 5 10
-0.384313344955444 -0.816006898880005 0.000402450561523 101 23 29
-0.381512165069580 -0.618328750133514 0.026657104492188 96 17 25
-0.393033981323242 -0.469151914119720 0.075769424438477 87 12 17
-0.427997827529907 0.533845067024231 0.306921005249023 78 11 13
-0.456532239913940 1.754399776458740 0.493001937866211 142 78 64
-0.407686710357666 1.961688280105591 0.283227920532227 142 86 63
-0.285143136978149 2.315064191818237 -0.692441940307617 138 77 49
-0.347447395324707 -2.444981098175049 -0.109329223632813 137 79 55
-0.367958307266235 -1.974122762680054 0.120075225830078 85 15 17
-0.373423337936401 -0.089458078145981 0.076875686645508 84 18 20
-0.382749080657959 0.133330941200256 0.215187072753906 71 5 7
-0.350700855255127 -2.080605030059814 0.096485137939453 105 34 35
-0.338659763336182 -1.229439496994019 -0.007827758789063 68 5 9
-0.358018636703491 0.208082377910614 0.241159439086914 72 6 8
-0.364848613739014 0.698666989803314 0.346639633178711 84 15 18
-0.378447771072388 0.777928411960602 0.382160186767578 85 14 18
-0.266434907913208 2.214152812957764 -0.406623840332031 140 80 52
-0.204980850219727 2.478553056716919 -0.854291915893555 130 66 41
-0.243674755096436 -2.611866950988770 -0.352231979370117 148 94 60
-0.332302331924438 -1.626022338867188 0.236093521118164 71 10 17
-0.342821359634399 -0.621245861053467 0.191465377807617 94 13 19
-0.209141731262207 2.343883991241455 -0.704425811767578 136 76 48
-0.301736116409302 -0.937786459922791 0.092638015747070 102 27 33
-0.328102111816406 0.278079569339752 0.223360061645508 76 10 12
-0.336150884628296 0.538952291011810 0.289110183715820 74 8 10
-0.188440561294556 2.240485191345215 -0.638771057128906 135 75 47
-0.196122169494629 2.659425497055054 -0.593086242675781 130 62 39
-0.259804964065552 -1.093577146530151 0.022367477416992 82 13 16
-0.301232814788818 -0.637646913528442 0.259538650512695 87 6 12
-0.301850080490112 1.005625009536743 0.282705307006836 78 8 10
-0.305914402008057 1.818874359130859 0.422616958618164 148 83 66
-0.234813213348389 2.905447721481323 -0.257812500000000 140 73 47
-0.186255455017090 -2.770610332489014 -0.375068664550781 147 92 57
-0.184720754623413 -2.535686254501343 -0.357908248901367 142 87 54
-0.225745677947998 -1.429159164428711 -0.007074356079102 71 9 12
-0.297036409378052 0.676712214946747 0.349973678588867 77 8 11
-0.290929079055786 1.976139783859253 0.416791915893555 144 87 65
-0.175304174423218 2.304280042648315 -0.428346633911133 135 75 47
-0.151776075363159 2.461580514907837 -0.527446746826172 133 71 46
-0.225694656372070 -1.984848976135254 0.137233734130859 85 6 9
-0.208163499832153 -1.298370122909546 0.000541687011719 69 4 8
-0.250190496444702 0.506644785404205 0.296422958374023 75 9 11
-0.250055551528931 1.389328956604004 0.339756011962891 77 7 9
-0.181186676025391 -2.167720317840576 0.036273956298828 116 41 35
-0.208005189895630 -0.126669019460678 0.098443984985352 75 11 12
-0.187954187393188 0.046171128749847 0.123352050781250 70 8 9
-0.188449859619141 1.990637063980103 0.164274215698242 147 89 65
-0.138689041137695 3.015254259109497 -0.329439163208008 140 73 47
-0.138505697250366 -3.076718091964722 -0.225584030151367 170 116 78
-0.129589319229126 -2.536922931671143 -0.343986511230469 150 94 61
-0.134399414062500 -2.363433122634888 -0.121770858764648 87 26 7
-0.227072238922119 1.111388444900513 0.499759674072266 76 8 9
-0.160307884216309 -1.679358243942261 0.090227127075195 70 7 11
-0.173021078109741 0.371691286563873 0.251806259155273 86 22 23
-0.205131292343140 0.743261754512787 0.337989807128906 83 14 17
-0.188168764114380 1.626222610473633 0.413660049438477 129 56 50
-0.020021438598633 2.200981616973877 -0.829298019409180 137 77 49
-0.069694995880127 2.303317785263062 -0.559614181518555 139 79 51
-0.063213109970093 2.812024831771851 -0.483074188232422 136 68 45
-0.109199285507202 -1.510848283767700 -0.045661926269531 68 6 11
-0.099487543106079 -1.404712796211243 -0.084543228149414 71 5 9
-0.142410039901733 -0.288105815649033 0.269346237182617 77 8 11
-0.151661634445190 0.623127758502960 0.340143203735352 85 16 19
-0.146418809890747 1.315100669860840 0.271249771118164 76 6 8
-0.174435138702393 1.796848535537720 0.386522293090820 145 78 62
-0.054183244705200 2.657293558120728 -0.482198715209961 130 64 40
-0.072887182235718 -2.889588594436646 -0.135797500610352 156 100 65
-0.033913612365723 -2.581695556640625 -0.458145141601563 150 94 59
-0.095486640930176 -1.755662202835083 0.088737487792969 72 5 8
-0.127363920211792 -1.583572149276733 0.104925155639648 66 5 12
-0.112746715545654 -0.613637447357178 0.152528762817383 94 18 20
-0.120428323745728 -0.386211454868317 0.219604492187500 76 8 10
-0.143979072570801 1.126582622528076 0.270868301391602 77 9 10
-0.118250370025635 1.215175628662109 0.239017486572266 77 9 10
-0.072133064270020 -1.038975000381470 -0.005741119384766 105 29 33
-0.087047576904297 -0.852911531925201 0.070783615112305 96 20 24
-0.091346263885498 -0.132963716983795 0.137163162231445 92 28 29
-0.109424352645874 0.187719106674194 0.224386215209961 96 35 36
-0.105076551437378 0.443142414093018 0.268260955810547 85 21 22
-0.127926588058472 1.915937900543213 0.427049636840820 149 89 65
-0.129006862640381 1.956874608993530 0.435073852539063 149 89 65
-0.054552078247070 -1.920325517654419 0.004676818847656 107 31 33
-0.032477140426636 -1.510606288909912 -0.031501770019531 70 8 14
-0.034471988677979 -1.189542889595032 -0.040697097778320 90 18 22
-0.070533037185669 1.334653615951538 0.219272613525391 79 8 8
0.056144714355469 2.314422607421875 -0.708543777465820 140 80 52
0.011659145355225 -2.411262750625610 -0.198221206665039 137 77 49
-0.028039932250977 -1.650807857513428 0.115829467773438 71 8 13
-0.004102706909180 -1.287225961685181 -0.071041107177734 85 14 18
-0.052450418472290 0.309143781661987 0.205812454223633 67 5 6
-0.069166421890259 0.923887670040131 0.356697082519531 78 8 10
0.041285991668701 2.629526615142822 -0.424072265625000 135 69 45
0.033921480178833 -2.480449676513672 -0.295751571655273 141 83 51
-0.030236482620239 -0.005606174468994 0.173677444458008 66 5 6
-0.046258687973022 0.788696110248566 0.389574050903320 84 14 19
0.115779638290405 2.424920082092285 -0.935028076171875 137 75 50
0.053638696670532 2.845830678939819 -0.423433303833008 135 67 43
0.044181108474731 -2.902019500732422 -0.078508377075195 159 105 69
0.031063318252563 -1.366614222526550 -0.032621383666992 86 15 21
0.007106304168701 -0.808233976364136 0.120700836181641 92 16 20
0.014626741409302 -0.603392362594604 0.183416366577148 94 19 23
-0.012846231460571 -0.300537467002869 0.267911911010742 83 17 18
-0.052880525588989 1.128146171569824 0.556718826293945 75 7 8
-0.002057790756226 1.823803663253784 0.223911285400391 153 87 70
0.066457509994507 -2.992683410644531 -0.126194000244141 161 107 70
0.072790145874023 -2.327692747116089 -0.226902008056641 117 50 27
0.050162553787231 -1.178790211677551 -0.056520462036133 85 11 15
0.011745452880859 0.647496402263641 0.354248046875000 77 8 11
0.012413740158081 0.896813809871674 0.392681121826172 76 7 9
0.023690462112427 1.591894149780273 0.293220520019531 114 39 33
0.004079580307007 1.934060573577881 0.387201309204102 152 92 70
0.085316419601440 -1.800906658172607 -0.025121688842773 76 6 8
0.049421072006226 0.307998120784760 0.201992034912109 67 5 6
0.021166801452637 0.962889969348907 0.487157821655273 79 11 12
0.119357347488403 -2.209964752197266 -0.163564682006836 98 21 8
0.103763818740845 -1.721721649169922 0.055963516235352 76 10 12
0.107691287994385 -1.418698310852051 -0.046085357666016 74 4 8
0.065741300582886 -0.715763986110687 0.276905059814453 89 14 18
0.080602169036865 0.129038870334625 0.188547134399414 72 10 11
-0.008908987045288 2.332180976867676 0.775793075561523 140 80 53
0.114601850509644 2.721379041671753 -0.139860153198242 130 63 38
0.161457538604736 -2.668523788452148 -0.217788696289063 146 90 57
0.165312290191650 -2.412088632583618 -0.350885391235352 143 82 53
0.091122150421143 -0.858024716377258 0.155357360839844 90 11 16
0.108988046646118 -0.182792857289314 0.168401718139648 75 7 8
0.071882486343384 0.589192211627960 0.307254791259766 75 6 9
0.099563837051392 1.593333721160889 0.190214157104492 110 36 29
0.166562795639038 1.975679159164429 -0.347461700439453 144 86 64
0.151983976364136 2.595945119857788 -0.292575836181641 138 72 46
0.130847692489624 -3.136690616607666 0.112976074218750 167 114 74
0.151602268218994 -2.974099159240723 -0.019426345825195 164 110 74
0.152169466018677 -1.517928123474121 0.024826049804688 84 17 19
0.128166198730469 -1.032929539680481 0.088397979736328 102 26 28
0.109475612640381 0.716641008853912 0.343101501464844 81 12 15
0.105649232864380 0.778229176998138 0.357837677001953 80 11 14
0.063598871231079 1.117271900177002 0.718011856079102 74 6 7
0.106980323791504 1.184348583221436 0.359468460083008 75 7 8
0.109356403350830 1.932829141616821 0.265747070312500 147 87 65
0.161694765090942 -1.662812471389771 0.074127197265625 74 8 10
0.146541118621826 -0.503618359565735 0.221008300781250 89 17 20
0.148139715194702 0.259989500045776 0.155414581298828 72 8 9
0.152323722839355 0.305140554904938 0.175926208496094 80 16 17
0.160837888717651 1.397362470626831 0.173728942871094 79 6 7
0.179143667221069 2.600259304046631 -0.181549072265625 136 70 44
0.186533212661743 -1.977271318435669 -0.001649856567383 103 21 21
0.182916402816772 0.081404685974121 0.153738021850586 89 21 22
0.152391672134399 1.618422985076904 0.259954452514648 118 43 37
0.217408657073975 2.679933786392212 -0.152402877807617 130 64 38
0.228625297546387 2.748429536819458 -0.338846206665039 135 68 42
0.211850881576538 2.919932842254639 -0.119234085083008 135 68 42
0.236258029937744 -2.987590551376343 -0.214052200317383 162 108 71
0.231657028198242 -2.087328433990479 -0.097658157348633 103 20 14
0.224776744842529 -2.060485363006592 -0.075380325317383 96 13 9
0.225826978683472 -1.848746061325073 -0.000862121582031 83 8 9
0.205404758453369 -0.287473201751709 0.216327667236328 83 13 15
0.214645147323608 -0.133343338966370 0.112401962280273 85 15 17
0.207880020141602 -0.043574482202530 0.084037780761719 77 9 10
0.051183700561523 2.191041707992554 1.335508346557617 145 87 63
0.277559757232666 2.397437095642090 -0.330268859863281 135 70 43
0.287917375564575 -2.491869449615479 -0.442378997802734 140 84 50
0.272261142730713 -2.251240015029907 -0.200143814086914 130 57 37
0.220397233963013 -0.845784544944763 0.159217834472656 87 11 15
0.212960243225098 0.636948525905609 0.270109176635742 79 10 13
0.210776567459106 0.811115205287933 0.317783355712891 84 16 16
0.177089929580688 1.055386781692505 0.566576004028320 73 5 6
0.273523092269897 2.566205739974976 -0.286924362182617 137 71 45
0.266468763351440 2.674347400665283 -0.158468246459961 133 66 40
0.336083173751831 -2.410413026809692 -0.572048187255859 146 85 54
0.260434389114380 -1.421900629997253 -0.048311233520508 83 10 14
0.247695922851563 -1.154069423675537 0.083488464355469 98 19 22
0.251547098159790 -1.005608797073364 0.148605346679688 87 8 13
0.254615783691406 -0.624064624309540 0.218008041381836 84 12 15
0.238766670227051 -0.531192243099213 0.246028900146484 82 10 13
0.247144222259521 0.488512635231018 0.219991683959961 81 12 15
0.201346874237061 1.011598587036133 0.521533966064453 75 7 8
0.237392187118530 1.507229566574097 0.208560943603516 96 21 18
0.237656354904175 1.851347684860229 0.227388381958008 152 88 70
0.221225738525391 1.924458503723145 0.308355331420898 149 90 67
0.244652986526489 2.022079944610596 0.255508422851563 142 83 59
0.288892507553101 2.419941663742065 -0.069921493530273 137 71 45
0.266756534576416 -3.153465747833252 0.297998428344727 165 112 72
0.294490098953247 -2.811201572418213 -0.081003189086914 160 106 70
0.315986633300781 -2.138632535934448 -0.158212661743164 95 15 4
0.259026050567627 -0.357250899076462 0.237483978271484 87 15 18
0.271031141281128 -0.194038242101669 0.195596694946289 89 17 20
0.276717424392700 -0.072729974985123 0.201429367065430 87 15 18
0.271895647048950 0.269469499588013 0.193016052246094 79 11 14
0.333488225936890 -2.637461185455322 -0.293243408203125 152 98 62
0.307243585586548 -1.510326147079468 0.060674667358398 83 11 14
0.303512334823608 -0.148013412952423 0.172327041625977 84 12 15
0.308612346649170 0.390564560890198 0.188186645507813 85 16 19
0.407729864120483 -2.473717689514160 -0.511819839477539 146 90 55
0.308871269226074 -1.117831230163574 0.183740615844727 89 10 13
0.326090574264526 0.193823873996735 0.148147583007813 78 9 12
0.308594703674316 0.340784966945648 0.183460235595703 85 16 19
0.302392482757568 1.450726509094238 0.234020233154297 81 7 8
0.381008148193359 2.690085649490356 -0.216760635375977 132 65 38
0.328606128692627 -3.169625759124756 0.289220809936523 166 113 73
0.329897642135620 0.139188468456268 0.215219497680664 78 9 11
0.332258462905884 0.734877288341522 0.280214309692383 86 18 19
0.352210283279419 1.833550214767456 0.138731002807617 152 89 71
0.369157314300537 2.602097272872925 -0.056959152221680 138 71 44
0.397600889205933 -2.949706315994263 -0.047142028808594 160 106 70
0.411653757095337 -2.209592819213867 -0.226064682006836 119 44 24
0.367546319961548 -0.211104914546013 0.143201828002930 90 14 18
0.373557567596436 0.234345734119415 0.163349151611328 83 13 17
0.388451814651489 2.541120767593384 0.039909362792969 133 67 39
0.441462039947510 -2.757086992263794 -0.195976257324219 157 103 67
0.427902698516846 -1.934134244918823 -0.028881072998047 116 35 33
0.428050518035889 -1.569885253906250 -0.010848999023438 88 13 14
0.414123058319092 -1.403445005416870 -0.057077407836914 87 11 13
0.398473262786865 -1.119497537612915 0.129781723022461 93 14 17
0.392451763153076 -0.839434623718262 0.145706176757813 94 19 23
0.382408618927002 -0.602388739585876 0.191303253173828 82 10 14
0.392772674560547 -0.471260875463486 0.212877273559570 92 20 24
0.427913904190063 -0.282333821058273 0.079021453857422 83 8 13
0.412320375442505 1.886626005172729 0.110147476196289 149 88 67
0.408515691757202 2.279233217239380 0.045202255249023 136 75 45
0.477151632308960 2.951464891433716 -0.526874542236328 136 70 46
0.453472137451172 -2.250947713851929 -0.176277160644531 143 71 47
0.379822015762329 1.120247364044189 0.547454833984375 76 6 8
0.479839324951172 2.095626592636108 -0.360544204711914 139 79 51
0.453767061233521 2.734055280685425 -0.232915878295898 134 67 40
0.467945575714111 2.875943422317505 -0.358449935913086 137 71 46
0.465579748153687 -1.142788887023926 0.071788787841797 88 8 11
0.440062046051025 -0.681259870529175 0.157871246337891 90 18 21
0.413203477859497 0.708841383457184 0.272605895996094 85 17 18
0.426546812057495 1.326182365417480 0.285205841064453 88 13 17
0.485729932785034 2.017122030258179 -0.207197189331055 143 86 59
0.422632217407227 2.304451942443848 0.313215255737305 141 79 49
0.495460748672485 -3.043303251266479 -0.062852859497070 162 108 70
0.506758213043213 -2.705837488174438 -0.212039947509766 154 100 64
0.469133853912354 -1.065064549446106 0.061576843261719 86 6 9
0.474152565002441 0.331017374992371 0.197076797485352 80 9 13
0.473474979400635 1.634788513183594 0.028533935546875 131 54 47
0.541006326675415 -2.520941734313965 -0.225473403930664 147 93 57
0.513170480728149 -1.271342396736145 -0.061153411865234 94 15 18
0.516415357589722 -1.191040039062500 -0.072595596313477 86 7 10
0.499077558517456 -0.089997768402100 0.091472625732422 85 11 12
0.504972219467163 -0.011200517416000 0.138469696044922 85 11 12
0.457105159759521 0.928939998149872 0.550386428833008 79 9 11
0.508736848831177 1.492977857589722 0.018325805664063 104 24 23
0.509077310562134 1.817390918731689 0.045473098754883 153 90 72
0.551100254058838 2.048875570297241 -0.332637786865234 140 81 53
0.511035680770874 2.296863317489624 -0.010557174682617 137 74 43
0.524829149246216 2.406015634536743 -0.082469940185547 133 66 37
0.494944334030151 2.528844356536865 0.047695159912109 134 67 38
0.562918901443481 -2.125345230102539 -0.145940780639648 119 45 29
0.517706155776978 -1.534982442855835 0.117662429809570 91 13 16
0.533267498016357 -0.799641132354736 0.071014404296875 88 13 17
0.507219791412354 0.328933358192444 0.196866989135742 88 17 21
0.492909431457520 0.557597517967224 0.312932968139648 75 4 8
0.505195140838623 0.804548323154449 0.359746932983398 77 7 9
0.518394947052002 1.983832597732544 -0.045276641845703 144 86 60
0.560660362243652 2.192587375640869 -0.305509567260742 138 76 46
0.572649002075195 -2.797059297561646 -0.132623672485352 157 103 67
0.564599514007568 -2.692843437194824 -0.002325057983398 155 101 65
0.577351808547974 -2.058912515640259 -0.088964462280273 101 25 11
0.541207313537598 -0.814056515693665 0.067871093750000 89 13 17
0.542115449905396 -0.295710682868958 0.131458282470703 92 17 21
0.563788414001465 -2.618274450302124 0.122585296630859 149 95 59
0.579333782196045 -0.992038190364838 0.046573638916016 89 9 12
0.582652330398560 -0.670889258384705 0.080310821533203 89 14 18
0.550763130187988 -0.416281610727310 0.196340560913086 81 6 10
0.606389522552490 2.674784183502197 -0.091402053833008 132 65 36
0.399156332015991 3.197201728820801 1.511745452880859 137 71 47
0.646710157394409 -2.469395399093628 -0.377010345458984 149 94 59
0.592008829116821 -1.278047561645508 0.169994354248047 90 11 14
0.595939874649048 -0.716114103794098 0.080572128295898 83 8 12
0.586657047271729 0.014777600765228 0.151525497436523 89 17 18
0.578524827957153 0.323555827140808 0.263017654418945 84 12 15
0.619715452194214 1.482396602630615 -0.000619888305664 99 18 17
0.618211507797241 2.780047655105591 -0.037088394165039 132 65 36
0.594053983688354 2.915059804916382 0.137559890747070 135 70 42
0.632434129714966 -2.903717279434204 -0.089508056640625 160 106 68
0.656601667404175 -2.250199556350708 -0.323070526123047 145 82 53
0.670058012008667 -2.159667253494263 -0.312503814697266 136 69 44
0.624901771545410 -0.771326065063477 0.057546615600586 87 11 15
0.613576412200928 -0.526619255542755 0.079282760620117 92 20 23
0.578091382980347 0.853075683116913 0.405393600463867 82 10 13
0.590346336364746 0.923723757266998 0.430557250976563 81 9 10
0.564109325408936 1.063085556030273 0.482286453247070 82 8 9
0.673035621643066 2.122601747512817 -0.390079498291016 142 81 52
0.668499946594238 -0.887570500373840 0.048267364501953 88 8 11
0.680010318756104 -2.887805700302124 -0.082796096801758 163 109 71
0.685590982437134 -2.743013381958008 -0.131088256835938 157 103 67
0.710507631301880 -2.171157121658325 -0.341058731079102 141 77 50
0.685960531234741 -1.863321304321289 -0.181829452514648 102 17 11
0.680626153945923 -1.840383768081665 -0.105432510375977 107 22 17
0.630129337310791 0.324044823646545 0.295553207397461 93 21 24
0.632038831710815 0.627287805080414 0.428730010986328 75 3 7
0.639868259429932 1.187635898590088 0.416765213012695 87 8 11
0.690928459167480 1.802185535430908 0.005924224853516 138 76 57
0.687779903411865 1.984125614166260 -0.199316024780273 145 85 57
0.704322814941406 2.339657306671143 -0.276977539062500 137 71 39
0.703786849975586 -2.587964534759521 0.022010803222656 151 97 61
0.677570581436157 -1.468246698379517 0.198957443237305 90 10 13
0.709071159362793 -0.908446431159973 0.049610137939453 92 12 15
0.699269056320190 -0.788862824440002 0.088500976562500 90 11 16
0.687030076980591 1.544676303863525 0.034854888916016 104 25 21
0.712615489959717 2.684861660003662 -0.037666320800781 129 63 31
0.735033035278320 -3.101134300231934 0.078477859497070 168 115 75
0.728841066360474 -1.744643211364746 0.002876281738281 107 21 19
0.710119009017944 -1.513350725173950 0.160917282104492 89 9 11
0.710977077484131 -1.093878746032715 0.098129272460938 96 14 18
0.710725069046021 0.795282423496246 0.253288269042969 84 12 15
0.701773643493652 0.871807515621185 0.311149597167969 80 7 10
0.673811912536621 1.084018945693970 0.466482162475586 85 9 11
0.688229560852051 1.291932582855225 0.469125747680664 102 21 27
0.766416549682617 2.117090463638306 -0.408725738525391 139 78 48
0.738515853881836 2.520731210708618 -0.053943634033203 135 69 37
0.763031005859375 -2.852692127227783 -0.115232467651367 159 105 69
0.743366241455078 -2.585835695266724 0.038328170776367 150 96 60
0.755599021911621 -2.311288356781006 -0.055719375610352 143 87 52
0.758919715881348 -2.161146402359009 -0.196180343627930 137 76 48
0.759353876113892 -2.019132137298584 -0.165237426757813 114 39 19
0.729283809661865 -0.385236471891403 0.134649276733398 84 10 11
0.755163431167603 1.734896421432495 0.034387588500977 158 92 75
0.785095214843750 2.013855934143066 -0.280288696289063 142 82 53
0.796321392059326 2.088757276535034 -0.444746017456055 141 80 50
0.716073989868164 2.989486932754517 0.319047927856445 135 70 42
0.745598554611206 -1.103287220001221 0.147329330444336 97 15 19
0.761255025863647 -0.893988490104675 0.087728500366211 99 14 21
0.754951715469360 -0.429673731327057 0.136116027832031 91 19 21
0.760937929153442 0.058369785547256 0.141475677490234 112 39 40
0.812521934509277 -2.948142528533936 -0.167844772338867 163 109 72
0.774253368377686 -0.323372751474380 0.086265563964844 90 15 19
0.800775289535522 -0.241712078452110 0.043762207031250 83 9 8
0.792965888977051 1.545764207839966 -0.016035079956055 126 49 43
0.845418214797974 2.185996770858765 -0.374740600585938 140 77 45
0.822791337966919 2.314709424972534 -0.327028274536133 136 71 39
0.821328639984131 2.804609298706055 -0.193458557128906 135 70 40
0.832687377929688 -1.968808412551880 -0.160552978515625 130 55 35
0.822700738906860 -1.753323554992676 -0.020805358886719 100 14 13
0.801718950271606 -1.481209039688110 0.256896972656250 89 7 9
0.783068895339966 0.528012931346893 0.356281280517578 85 8 14
0.869906902313232 2.046010255813599 -0.411090850830078 138 78 47
0.840532779693604 -3.048254251480103 -0.010509490966797 167 113 75
0.890712261199951 2.415571928024292 -0.355957031250000 140 74 42
0.864400148391724 2.931354284286499 -0.159456253051758 136 71 43
0.874594926834106 -2.624286174774170 -0.021352767944336 156 102 68
0.868569135665894 -2.498364448547363 -0.120536804199219 149 95 59
0.867487668991089 -2.310070753097534 0.053174972534180 149 93 58
0.894239425659180 -2.043225526809692 -0.197828292846680 143 75 48
0.841664314270020 -0.671283721923828 0.160469055175781 96 18 23
0.847828865051270 0.273818314075470 0.213788986206055 97 25 28
0.835031032562256 0.661282479763031 0.275409698486328 89 13 17
0.872395515441895 1.540728569030762 0.025333404541016 117 40 32
0.868101835250854 1.736154079437256 -0.016599655151367 181 116 97
0.896181344985962 2.042391300201416 -0.362459182739258 141 80 49
0.908718347549438 -2.816996335983276 -0.151655197143555 158 104 68
0.860035896301270 -1.164374113082886 0.242704391479492 88 6 10
0.874720335006714 -0.438498795032501 0.176973342895508 87 15 18
0.841518878936768 1.082380771636963 0.455411911010742 93 11 15
0.861505031585693 1.263925790786743 0.446598052978516 106 19 25
0.929461956024170 -1.734949350357056 0.006603240966797 118 33 28
0.900065183639526 -1.623371362686157 0.127685546875000 97 9 8
0.894023418426514 -0.827629983425140 0.278350830078125 98 16 20
0.925911426544189 -2.931806087493896 0.083307266235352 169 113 76
0.911398649215698 -0.779025852680206 0.204504013061523 95 13 19
0.926353931427002 -0.334276914596558 0.152425765991211 88 12 16
0.918591737747192 0.699095189571381 0.198150634765625 88 9 14
0.914581298828125 0.906666457653046 0.228851318359375 89 9 12
0.945700407028198 1.505708694458008 0.034416198730469 108 28 21
0.993817806243896 2.571732997894287 -0.449628829956055 135 70 40
0.923100709915161 -3.148821353912354 0.498146057128906 168 113 73
0.968419075012207 -2.721673250198364 -0.015075683593750 152 96 61
0.985694885253906 -1.873921155929565 -0.174274444580078 114 38 22
0.944036006927490 -1.074281573295593 0.287975311279297 94 12 16
0.926747560501099 -0.629486918449402 0.251689910888672 87 8 13
0.916478395462036 0.481500506401062 0.382320404052734 81 6 10
1.002448081970215 2.820408582687378 -0.406492233276367 136 70 43
0.973395586013794 0.095151543617249 0.119524002075195 84 16 17
0.970944643020630 0.969006597995758 0.322143554687500 94 11 16
0.958450794219971 1.391413688659668 0.191848754882813 110 22 23
0.987393856048584 1.673496961593628 -0.074359893798828 144 80 60
1.009273529052734 -2.298021793365479 0.033107757568359 145 91 55
0.973415613174438 -0.619030416011810 0.292009353637695 90 9 15
0.990412712097168 -0.023942887783051 0.095420837402344 78 8 10
0.980954647064209 0.538943529129028 0.343511581420898 86 9 14
1.045408010482788 2.160807371139526 -0.432983398437500 135 70 40
1.063709259033203 -2.403716325759888 -0.165870666503906 145 89 54
1.063512802124023 2.986236095428467 -0.046186447143555 135 69 43
1.065559625625610 -2.801642656326294 -0.112251281738281 159 101 64
1.067083358764648 -2.721210956573486 -0.042043685913086 158 100 63
1.087592124938965 -2.495931148529053 -0.080841064453125 155 96 62
1.076982736587524 -2.064279317855835 -0.192508697509766 144 85 53
1.061086177825928 -1.512697935104370 -0.025876998901367 111 25 24
1.043179273605347 -0.883109688758850 0.275705337524414 100 15 18
1.038802146911621 -0.394847869873047 0.195543289184570 91 15 19
1.039478302001953 0.686604201793671 0.274646759033203 93 13 16
1.059401512145996 1.614249229431152 -0.057416915893555 152 85 68
1.113047599792480 2.141121149063110 -0.675086975097656 138 73 43
1.057841300964355 -3.182707309722900 0.363206863403320 168 114 70
1.038035869598389 -3.106486797332764 0.563028335571289 162 107 66
1.073235988616943 -2.312073469161987 0.012310028076172 146 92 56
1.109257221221924 -1.749337673187256 -0.272792816162109 90 21 4
1.064475536346436 0.437832534313202 0.276603698730469 84 9 13
1.055924892425537 0.531765222549438 0.330751419067383 92 15 19
1.072969198226929 1.354787111282349 0.278966903686523 107 21 22
1.119138956069946 1.983770370483398 -0.405912399291992 143 82 51
1.127789974212646 2.044123411178589 -0.559860229492188 141 78 47
1.106234550476074 -2.906715154647827 -0.097881317138672 164 108 71
1.121133804321289 -2.664511919021606 -0.105588912963867 156 97 61
1.117845296859741 -2.220486402511597 -0.051761627197266 146 90 55
1.115504264831543 -1.882814407348633 -0.118501663208008 141 76 54
1.113197088241577 -1.601555585861206 -0.163858413696289 118 38 30
1.100964546203613 -0.532047688961029 0.201236724853516 95 14 20
1.104606389999390 -0.062478601932526 0.104816436767578 77 3 7
1.090646743774414 0.254360795021057 0.210643768310547 77 6 9
1.098809480667114 1.487174034118652 0.037336349487305 147 71 61
1.148483991622925 2.427517414093018 -0.468593597412109 135 68 39
1.146550893783569 2.656510591506958 -0.371759414672852 138 72 45
1.105110168457031 0.874645888805389 0.385835647583008 105 18 24
1.145097017288208 -1.128657817840576 0.180204391479492 96 11 16
1.141116857528687 -0.906003057956696 0.216934204101563 99 12 17
1.142462015151978 -0.429022341966629 0.188062667846680 91 11 14
1.120264768600464 -0.350327253341675 0.175170898437500 89 13 17
1.195633411407471 1.885235548019409 -0.378484725952148 143 82 53
1.187282085418701 2.633742094039917 -0.362550735473633 135 68 43
1.210263967514038 2.782261133193970 -0.455623626708984 133 68 42
1.222513198852539 2.925211906433105 -0.730821609497070 134 68 42
1.152544975280762 -0.841185569763184 0.268770217895508 104 17 23
1.169301271438599 -0.264278769493103 0.241664886474609 89 10 15
1.246532678604126 2.098281621932983 -0.631807327270508 138 73 43
1.221346139907837 2.664554834365845 -0.453422546386719 134 67 43
1.237366199493408 -2.103671312332153 -0.327135086059570 136 81 47
1.154297590255737 0.870855271816254 0.337779998779297 102 15 21
1.189099788665771 1.178074121475220 0.140041351318359 104 13 16
1.187813997268677 1.335892438888550 0.220380783081055 108 26 22
1.213651657104492 1.605186700820923 -0.091485977172852 150 86 65
1.263127326965332 2.025406599044800 -0.530643463134766 140 77 46
1.243867874145508 2.346887588500977 -0.543127059936523 136 69 42
1.243569374084473 2.545723676681519 -0.459568023681641 136 69 43
1.220894336700439 -0.660491645336151 0.232383728027344 99 17 22
1.197230339050293 0.162093222141266 0.378742218017578 80 8 12
1.197996616363525 0.398800909519196 0.371334075927734 91 15 19
1.283219337463379 2.244532108306885 -0.499057769775391 135 68 41
1.205864906311035 -3.149906396865845 0.640434265136719 165 107 67
1.259421110153198 -2.327491998672485 -0.146814346313477 143 84 52
1.283700942993164 -1.393012762069702 -0.286363601684570 109 25 23
1.240784883499146 -0.518683791160583 0.170886993408203 102 17 22
1.233740568161011 0.576031744480133 0.295648574829102 100 20 23
1.226126194000244 1.342891454696655 0.263710021972656 112 30 25
1.285348415374756 1.809393405914307 -0.316247940063477 143 82 53
1.295305013656616 2.660106658935547 -0.484931945800781 139 71 48
1.332210302352905 2.878434896469116 -0.783115386962891 135 68 42
1.267100811004639 -2.740264654159546 -0.014905929565430 158 100 63
1.280463933944702 -2.687377214431763 -0.038526535034180 161 103 66
1.306596517562866 -1.622740507125854 -0.215677261352539 138 66 51
1.254806995391846 -0.686137557029724 0.194753646850586 107 22 27
1.270287513732910 -0.251688063144684 0.185888290405273 88 8 11
1.335751771926880 2.015088558197021 -0.667961120605469 143 80 49
1.325505256652832 2.158048152923584 -0.607316970825195 133 67 38
1.259149312973022 -2.908080816268921 0.559556961059570 156 98 60
1.314946413040161 -1.696663856506348 -0.270334243774414 143 77 56
1.314162969589233 -1.109981060028076 -0.045114517211914 109 20 23
1.345758676528931 1.838732242584229 -0.488050460815430 144 83 54
1.369520664215088 2.930539608001709 -0.987152099609375 135 68 42
1.344997167587280 -0.947831034660339 -0.046205520629883 97 8 10
1.327504634857178 -0.888229548931122 0.042716979980469 99 10 14
1.286728858947754 0.189765810966492 0.306190490722656 91 14 20
1.391521930694580 2.826354980468750 -0.746114730834961 133 67 43
1.295167922973633 -3.084563732147217 0.670286178588867 162 104 64
1.373411178588867 -2.399175882339478 -0.182258605957031 154 95 61
1.372610569000244 -1.320242881774902 -0.401668548583984 112 33 26
1.350509643554688 -0.619170546531677 0.178743362426758 106 15 20
1.333199024200439 -0.486679583787918 0.166746139526367 107 18 22
1.348873853683472 -0.014114022254944 0.147424697875977 87 6 12
1.318257331848145 0.833631575107574 0.328821182250977 101 14 20
1.331998348236084 1.101654767990112 0.250272750854492 119 30 30
1.338904380798340 1.311180591583252 0.060956954956055 133 55 46
1.341787338256836 1.517247200012207 -0.006427764892578 135 75 51
1.388722181320190 1.950808525085449 -0.417882919311523 138 75 44
1.374886274337769 -2.288172960281372 -0.218542098999023 155 96 64
1.381469011306763 -1.968416690826416 -0.198852539062500 144 85 55
1.353349208831787 -0.415142804384232 0.130840301513672 100 13 19
1.359922170639038 -3.200909376144409 0.571985244750977 172 114 74
1.413172245025635 -1.192247033119202 -0.271343231201172 113 32 27
1.381107330322266 -0.578312039375305 0.209911346435547 108 16 21
1.386809825897217 -0.215654507279396 0.224794387817383 97 10 16
1.377567529678345 0.401944398880005 0.190145492553711 90 10 13
1.374025106430054 0.548243939876556 0.268657684326172 101 19 23
1.367913484573364 0.807202875614166 0.313787460327148 94 7 13
1.408418178558350 1.286449432373047 -0.041305541992188 123 49 38
1.421880483627319 1.656637430191040 -0.305099487304688 142 86 54
1.415815353393555 2.307236194610596 -0.330535888671875 125 58 31
1.436481118202209 2.720613956451416 -0.502233505249023 135 68 45
1.456262946128845 -2.463156938552856 -0.305603027343750 157 97 63
1.444012403488159 -2.073947906494141 -0.230604171752930 145 89 56
1.428810834884644 -0.996923983097076 -0.007526397705078 111 25 24
1.419691324234009 -0.792604565620422 0.153778076171875 102 10 13
1.433290719985962 2.596186399459839 -0.186822891235352 139 72 46
1.384305953979492 -3.040167331695557 0.802574157714844 167 109 69
1.467172145843506 -2.225764036178589 -0.275968551635742 150 91 59
1.488207578659058 -1.269443035125732 -0.451623916625977 86 14 0
1.439983129501343 -0.844370007514954 0.101922988891602 103 12 14
1.433189392089844 -0.117130249738693 0.193021774291992 104 17 23
1.467061161994934 1.920741796493530 -0.392799377441406 142 77 47
1.512175083160400 2.883399248123169 -0.777746200561523 138 72 48
1.429972171783447 -3.201752424240112 0.535551071166992 167 109 69
1.514276266098022 -2.133457183837891 -0.371545791625977 146 87 55
1.494108676910400 -1.778327226638794 -0.315223693847656 141 82 52
1.455534934997559 -0.719217300415039 0.183191299438477 114 24 26
1.502297759056091 -1.913694143295288 -0.034812927246094 144 85 55
1.510125637054443 -1.602157354354858 -0.184965133666992 139 77 52
1.493020296096802 0.003733098506927 0.140737533569336 96 11 17
1.515992045402527 1.565098762512207 -0.294958114624023 142 86 56
1.529490470886230 1.792828798294067 -0.336709976196289 138 77 46
1.529801607131958 2.707323551177979 -0.476329803466797 133 65 42
1.465216517448425 -3.011792898178101 0.624633789062500 164 106 66
1.483631849288940 0.276297867298126 0.294969558715820 102 20 26
1.514961481094360 0.465383350849152 0.206260681152344 99 17 22
1.494565725326538 0.961828052997589 0.302415847778320 96 10 13
1.494871854782104 1.046879768371582 0.182130813598633 98 13 13
1.575051069259644 2.849699497222900 -0.924125671386719 135 69 45
1.555197715759277 -2.328232288360596 -0.103605270385742 148 88 55
1.569388389587402 -1.727573871612549 -0.378505706787109 138 79 49
1.558435320854187 -1.171505570411682 -0.272064208984375 86 12 1
1.520024418830872 0.015293866395950 0.138696670532227 104 19 26
1.515693068504333 0.117799520492554 0.187366485595703 107 22 29
1.558006644248962 1.308800220489502 -0.192417144775391 122 58 40
1.596282601356506 2.048087120056152 -0.698137283325195 134 70 38
1.522315502166748 -3.079426050186157 0.596317291259766 167 109 69
1.576311945915222 -2.430158376693726 -0.036682128906250 146 87 53
1.547115325927734 -0.316239148378372 0.206521987915039 98 7 12
1.550588130950928 0.647387802600861 0.175092697143555 99 14 17
1.586284041404724 1.498563051223755 -0.268377304077148 137 80 51
1.609771013259888 1.968004941940308 -0.720006942749023 130 67 32
1.594437718391418 -1.933436632156372 -0.215061187744141 144 85 53
1.628947734832764 -1.384408593177795 -0.593107223510742 138 80 56
1.576641440391541 -0.560187339782715 0.124979019165039 105 13 16
1.604277968406677 1.189035177230835 -0.077577590942383 141 69 58
1.633400678634644 1.902085542678833 -0.425622940063477 136 73 38
1.573183655738831 -3.181029081344604 0.475240707397461 173 115 75
1.607970476150513 -0.877430319786072 -0.069700241088867 111 28 24
1.595199346542358 0.307053744792938 0.080610275268555 90 8 14
1.660806298255920 2.033675193786621 -0.577421188354492 128 65 31
1.612003326416016 2.524396419525146 -0.057521820068359 137 70 44
1.607730627059937 -2.733657360076904 0.384731292724609 163 103 66
1.637037038803101 -2.564258575439453 0.005727767944336 165 105 69
1.644318342208862 -2.494581937789917 -0.094156265258789 161 102 66
1.632649540901184 -0.744316697120667 0.073541641235352 124 36 35
1.619323730468750 0.402949810028076 0.134033203125000 97 12 17
1.659212112426758 1.830361604690552 -0.335571289062500 132 69 34
1.618280291557312 -3.056987285614014 0.630075454711914 171 113 73
1.682360172271729 -1.989377498626709 -0.243110656738281 146 87 55
1.645915746688843 1.006769418716431 0.132511138916016 115 35 32
1.688153862953186 2.292380809783936 -0.368104934692383 137 70 43
1.724491357803345 2.783638238906860 -0.809631347656250 134 68 44
1.700453639030457 -1.062524557113647 -0.262239456176758 133 64 48
