ply
format ascii 1.0
element vertex 733
property double x
property double y
property double z
property uchar red
property uchar green
property uchar blue
end_header
1.580903291702271 -0.745252966880798 -0.178336143493652 141 97 72
1.574554443359375 -0.454936623573303 -0.261183738708496 130 88 64
1.580299019813538 -0.380504608154297 -0.207653045654297 115 73 49
1.594259977340698 -0.181940197944641 -0.015652656555176 117 72 50
1.600211501121521 0.143736124038696 0.217802047729492 110 46 37
1.614634156227112 0.861821055412292 0.317670822143555 113 66 56
1.611782073974609 0.875958621501923 0.366487503051758 103 59 46
1.591351151466370 1.355783462524414 -0.034213066101074 103 61 36
1.601513743400574 1.867316484451294 0.119993209838867 107 60 40
1.603574395179749 -1.770842432975769 0.067443847656250 163 119 84
1.607041239738464 -1.438600659370422 0.079284667968750 161 112 79
1.597591876983643 -1.092785716056824 -0.036788940429688 147 103 76
1.585803985595703 -0.355363607406616 -0.209875106811523 121 80 55
1.602406859397888 -0.133288025856018 0.029016494750977 113 69 46
1.610167980194092 -0.029337048530579 0.118951797485352 118 68 48
1.615590691566467 0.245917916297913 0.205659866333008 108 44 34
1.612842202186584 0.414768636226654 0.199108123779297 103 35 27
1.618467807769775 0.673241853713989 0.257076263427734 85 26 20
1.614546298980713 0.786002695560455 0.223127365112305 101 46 41
1.612307429313660 -1.637369036674500 0.086334228515625 158 112 78
1.608141422271729 -1.193163990974426 -0.028351783752441 147 102 71
1.600480675697327 -1.132902503013611 -0.049780845642090 152 109 77
1.599716901779175 -0.995423674583435 -0.071556091308594 147 101 77
1.594503998756409 -0.412099361419678 -0.245878219604492 127 85 60
1.592800974845886 -0.372861504554749 -0.221445083618164 118 76 52
1.593022704124451 -0.328420639038086 -0.217738151550293 118 78 52
1.604006767272949 -0.197060942649841 -0.106983184814453 117 75 51
1.610110402107239 -0.055009603500366 0.101991653442383 114 66 45
1.615321636199951 0.005520582199097 0.141271591186523 118 65 49
1.616931915283203 0.103234410285950 0.202711105346680 116 59 45
1.618565201759338 0.143464207649231 0.217378616333008 106 47 33
1.620414972305298 0.426299273967743 0.204210281372070 107 41 33
1.616848587989807 0.460629522800446 0.204643249511719 110 44 37
1.625711679458618 0.634403169155121 0.226709365844727 98 39 33
1.606470346450806 1.110849022865295 0.082983016967773 101 65 49
1.603492498397827 1.306624174118042 -0.033228874206543 107 67 41
1.606956839561462 1.516823410987854 0.030973434448242 106 62 37
1.609413743019104 1.539389252662659 0.041135787963867 105 61 36
1.611264467239380 1.589348554611206 0.047443389892578 107 61 35
1.620234370231628 -1.716871857643127 0.090387344360352 165 121 84
1.617749810218811 -1.505942702293396 0.034805297851563 163 113 79
1.609195947647095 -1.356302142143250 0.039003372192383 153 108 75
1.618824481964111 -1.315779805183411 0.022830963134766 157 111 78
1.605125427246094 -0.936338305473328 -0.092844009399414 148 100 76
1.609919071197510 -0.867257714271545 -0.099485397338867 141 93 69
1.601789951324463 -0.750592350959778 -0.237870216369629 138 91 67
1.593506574630737 -0.686957716941833 -0.303339004516602 136 91 67
1.627725839614868 0.404779672622681 0.206771850585938 98 34 25
1.624816775321960 0.584558248519897 0.214393615722656 102 41 36
1.629786968231201 0.731361746788025 0.222839355468750 93 34 28
1.634583353996277 0.846348285675049 0.336881637573242 106 60 47
1.614088058471680 1.031244277954102 0.025177001953125 107 70 53
1.626145720481873 -1.565034270286560 0.042589187622070 161 112 79
1.624478459358215 -1.215293526649475 0.029975891113281 152 107 76
1.621598839759827 -1.205315709114075 0.023717880249023 151 106 75
1.614725470542908 -1.042662739753723 -0.085717201232910 148 102 76
1.612970113754272 -0.258814215660095 -0.132793426513672 110 69 41
1.638079762458801 0.168248057365417 0.222591400146484 111 52 36
1.634532451629639 0.268751859664917 0.204885482788086 108 47 33
1.637943148612976 0.348421216011047 0.209119796752930 105 41 29
1.636049151420593 0.535734713077545 0.231571197509766 102 41 33
1.623817563056946 1.104964137077332 0.011331558227539 101 64 48
1.618740200996399 1.386364936828613 -0.019098281860352 105 64 36
1.620676159858704 1.430846810340881 0.002161026000977 109 67 42
1.623221516609192 1.489594697952271 0.027803421020508 102 58 34
1.621331930160522 1.543105244636536 0.044378280639648 102 56 30
1.619908928871155 1.589066982269287 0.048366546630859 109 63 37
1.629594683647156 1.663070678710938 0.154348373413086 103 57 31
1.636124610900879 -1.485148787498474 0.041606903076172 159 109 76
1.630419373512268 -1.240685105323792 -0.004705429077148 158 112 79
1.624886393547058 -0.940128445625305 -0.095020294189453 148 101 75
1.611965775489807 -0.754826664924622 -0.211795806884766 140 92 69
1.631224274635315 -0.565660357475281 0.042598724365234 133 91 67
1.616178035736084 -0.348971366882324 -0.194257736206055 120 80 55
1.618319272994995 -0.318879723548889 -0.191504478454590 114 74 49
1.618044137954712 -0.197689294815063 -0.132008552551270 114 72 47
1.639168858528137 0.425040423870087 0.202672958374023 100 38 27
1.624632239341736 1.094870209693909 -0.051533699035645 102 64 51
1.642106771469116 1.787800788879395 0.226121902465820 110 63 43
1.631780266761780 -1.813122391700745 0.025566101074219 167 123 88
1.642382383346558 -1.578000187873840 0.073209762573242 164 115 82
1.644536495208740 -1.173658251762390 0.056619644165039 151 106 75
1.633533120155334 -1.108178734779358 -0.000272750854492 152 107 78
1.624855637550354 -0.886980414390564 -0.101788520812988 129 82 56
1.620252013206482 -0.790680766105652 -0.156310081481934 143 95 72
1.620188355445862 -0.451339006423950 -0.219764709472656 127 83 58
1.622684955596924 -0.388922452926636 -0.192249298095703 121 81 56
1.625523924827576 -0.106748223304749 -0.104576110839844 125 80 57
1.636974334716797 -0.026130914688110 0.028009414672852 117 72 51
1.650808215141296 0.211097955703735 0.226224899291992 115 56 40
1.652106761932373 0.474372208118439 0.205640792846680 104 44 33
1.652716398239136 0.515684306621552 0.229459762573242 97 38 27
1.639021754264832 1.903479814529419 0.079214096069336 109 62 42
1.646711349487305 -1.632748961448669 0.106435775756836 163 117 83
1.630411386489868 -0.819696307182312 -0.143601417541504 145 97 74
1.625690579414368 -0.362552165985107 -0.225779533386230 124 84 59
1.633419036865234 -0.136537313461304 -0.119138717651367 118 76 52
1.632152915000916 -0.085583090782166 -0.105279922485352 117 72 49
1.648486733436584 0.017283201217651 0.117614746093750 117 69 49
1.647324442863464 0.057590007781982 0.156362533569336 107 57 37
1.656007647514343 0.233186364173889 0.199829101562500 108 49 33
1.651401042938232 0.287781000137329 0.198595046997070 117 55 40
1.658916234970093 0.818436264991760 0.183515548706055 106 62 49
1.649439334869385 0.897216081619263 0.140457153320313 107 68 53
1.657018303871155 1.713894009590149 0.236215591430664 100 54 30
1.645044326782227 2.024213790893555 0.042795181274414 112 65 45
1.652459859848022 -1.739121794700623 0.110378265380859 166 122 85
1.651195406913757 -1.587624669075012 0.057504653930664 166 117 84
1.654365420341492 -1.262050271034241 0.057060241699219 154 108 74
1.655268788337708 -1.205049633979797 0.054601669311523 156 110 78
1.652694463729858 -1.142056345939636 0.018630981445313 148 103 74
1.636930823326111 -0.309703826904297 -0.204996109008789 118 78 52
1.645019054412842 -0.252819180488586 -0.100293159484863 117 75 48
1.663899183273315 0.360993862152100 0.206521987915039 107 48 32
1.663579344749451 0.660049796104431 0.240829467773438 103 50 36
1.657095193862915 0.795788168907166 0.180801391601563 101 55 42
1.641790628433228 1.082053899765015 -0.068017005920410 99 62 46
1.651603102684021 1.361803412437439 0.021108627319336 101 60 32
1.657470941543579 1.534370660781860 0.076923370361328 100 54 28
1.651450395584106 1.575346231460571 0.088634490966797 99 53 27
1.666381955146790 1.744899034500122 0.289669036865234 108 62 39
1.658875107765198 -1.560476660728455 0.041086196899414 161 112 79
1.654480099678040 -1.099756360054016 0.014728546142578 148 103 74
1.649185180664063 -0.765395760536194 -0.123758316040039 142 95 70
1.647489190101624 -0.174538254737854 -0.078367233276367 111 71 46
1.667965292930603 0.259559869766235 0.175914764404297 114 58 41
1.668222069740295 0.440221667289734 0.193756103515625 106 48 34
1.669741630554199 0.641200840473175 0.232133865356445 107 54 39
1.662690639495850 1.316770434379578 0.101182937622070 96 56 30
1.666918158531189 -1.687595486640930 0.083799362182617 159 113 77
1.671164393424988 -1.527521014213562 0.066181182861328 163 113 80
1.663425445556641 -1.451090216636658 -0.004171371459961 159 110 77
1.668518424034119 -1.306869626045227 0.044153213500977 157 111 78
1.670806407928467 -1.273717522621155 0.041648864746094 160 114 80
1.657148003578186 -1.049452900886536 -0.105090141296387 152 106 79
1.655320405960083 -0.782381892204285 -0.124526023864746 137 90 64
1.657026529312134 -0.733192563056946 -0.115803718566895 139 93 69
1.656555652618408 -0.692500233650208 -0.106388092041016 129 85 60
1.655018687248230 -0.634183526039124 -0.105091094970703 140 95 72
1.663783431053162 -0.600669622421265 -0.036565780639648 143 98 75
1.644824862480164 -0.394262909889221 -0.280361175537109 121 79 54
1.649942159652710 -0.247172474861145 -0.192706108093262 115 73 46
1.674703955650330 0.491948664188385 0.211156845092773 106 51 38
1.671054959297180 0.503549575805664 0.222883224487305 103 46 34
1.667366027832031 1.161093831062317 0.077951431274414 103 66 48
1.666310310363770 1.448273301124573 0.072511672973633 99 53 29
1.665833234786987 1.536728143692017 0.078914642333984 103 56 30
1.669982433319092 1.547686815261841 0.079885482788086 105 58 32
1.675756692886353 1.651375889778137 0.215696334838867 104 58 32
1.667454481124878 -1.133146166801453 0.011873245239258 152 107 76
1.655647397041321 -0.496736884117126 -0.227931022644043 129 87 62
1.658347129821777 -0.322558999061584 -0.257982254028320 119 79 54
1.658495545387268 -0.119390368461609 -0.164104461669922 114 73 49
1.675991296768188 0.082733035087585 0.086788177490234 118 70 50
1.674402832984924 0.128629207611084 0.057073593139648 113 63 43
1.677507877349854 0.593845903873444 0.199913024902344 100 47 33
1.688819408416748 1.822402715682983 0.278867721557617 102 55 35
1.684456348419189 -1.737827897071838 0.096374511718750 167 121 85
1.675898313522339 -1.398781657218933 0.003396987915039 161 115 82
1.682637214660645 -1.194804072380066 0.004961013793945 157 111 78
1.669489026069641 -1.028624176979065 -0.088505744934082 151 104 76
1.669650912284851 -0.953801751136780 -0.141790390014648 130 85 56
1.672744154930115 -0.748389601707458 -0.081115722656250 141 95 71
1.664882540702820 -0.046086907386780 -0.145409584045410 115 73 51
1.679477691650391 0.169438958168030 0.066671371459961 120 70 51
1.684878110885620 0.291677951812744 0.099748611450195 111 59 40
1.689274549484253 0.499097824096680 0.220108032226563 103 50 34
1.688192963600159 0.728542149066925 0.179943084716797 93 47 34
1.674129843711853 0.950710535049438 -0.028713226318359 97 60 44
1.674663782119751 1.943203330039978 0.031431198120117 115 68 50
1.690631628036499 -1.575978875160217 0.094352722167969 159 113 79
1.688954949378967 -1.114891409873962 0.054059982299805 148 101 71
1.684321761131287 -0.715922474861145 -0.098664283752441 140 94 70
1.664298415184021 -0.454514384269714 -0.274500846862793 133 91 63
1.665201187133789 -0.290284037590027 -0.303133964538574 119 78 52
1.676396250724792 -0.016455054283142 -0.108340263366699 118 74 53
1.694359421730042 0.627618670463562 0.203155517578125 106 59 39
1.697692036628723 0.774971783161163 0.173254013061523 105 62 48
1.692677259445190 1.499529123306274 0.157579421997070 87 38 15
1.695697546005249 1.729760408401489 0.236833572387695 106 60 37
1.694191575050354 1.793133139610291 0.167705535888672 106 59 39
1.701853871345520 -1.634660363197327 0.124042510986328 165 119 85
1.697051525115967 -1.515899062156677 0.048301696777344 161 112 79
1.680453419685364 -0.838666081428528 -0.116201400756836 140 93 67
1.684783816337585 -0.642400383949280 -0.062225341796875 135 90 67
1.678347945213318 -0.428152084350586 -0.268869400024414 126 85 57
1.673098921775818 -0.116248726844788 -0.249368667602539 117 79 56
1.679227590560913 -0.103899240493774 -0.176763534545898 114 73 51
1.690804481506348 0.101310014724731 -0.010040283203125 116 69 49
1.688391685485840 0.142433285713196 -0.041789054870605 113 66 46
1.703329324722290 0.338285088539124 0.104244232177734 111 64 44
1.690649151802063 1.263737559318542 0.011119842529297 100 59 39
1.699222326278687 1.555816411972046 0.104436874389648 108 60 37
1.689961075782776 2.040814399719238 0.027729034423828 102 55 37
1.708471298217773 -1.728052973747253 0.091838836669922 168 122 86
1.686069726943970 -0.773394942283630 -0.125248908996582 143 96 70
1.712109684944153 0.353334784507751 0.135673522949219 106 59 39
1.708773612976074 0.589533388614655 0.190740585327148 111 64 44
1.694326162338257 1.205861926078796 -0.087839126586914 101 62 43
1.710175395011902 -1.782531857490540 0.036262512207031 170 124 90
1.704560041427612 -1.353550553321838 -0.039712905883789 161 112 80
1.698001623153687 -1.061804413795471 -0.078310012817383 148 101 72
1.704908490180969 -0.749302744865417 -0.043895721435547 137 91 65
1.684024810791016 -0.322443723678589 -0.257277488708496 118 78 53
1.709920406341553 0.236860871315002 0.011926651000977 106 60 39
1.710687160491943 0.290631175041199 0.026435852050781 107 60 40
1.709857702255249 0.811717867851257 0.080753326416016 106 64 48
1.701397538185120 0.949077188968658 -0.076380729675293 110 73 57
1.711099624633789 1.304948806762695 0.067718505859375 100 55 32
1.715890645980835 1.431613087654114 0.141904830932617 109 61 38
1.713651180267334 1.573291301727295 0.130874633789063 102 54 31
1.722955346107483 1.861148834228516 0.263025283813477 107 60 42
1.713762879371643 -1.806295275688171 -0.000133514404297 171 125 91
1.715605497360229 -1.762916445732117 0.064498901367188 166 120 85
1.713101148605347 -1.311896204948425 -0.074346542358398 162 113 80
1.710372686386108 -1.296685576438904 -0.016592025756836 158 109 76
1.717420816421509 -1.226493477821350 0.034955978393555 158 109 76
1.707346916198730 -0.869599699974060 -0.084650039672852 138 91 63
1.708498954772949 -0.783136248588562 -0.088920593261719 140 93 66
1.707255601882935 -0.673466801643372 -0.083751678466797 129 85 60
1.720391631126404 0.395746409893036 0.118297576904297 110 64 42
1.722688913345337 0.569358885288239 0.151607513427734 101 56 35
1.724990487098694 0.686634063720703 0.104646682739258 101 63 44
1.723139286041260 1.601932287216187 0.195220947265625 101 53 30
1.721217870712280 1.626786828041077 0.198804855346680 102 56 32
1.720711350440979 1.912157535552979 0.134841918945313 110 63 45
1.721190214157104 -1.385394454002380 -0.033397674560547 160 114 81
1.715689301490784 -1.339851737022400 -0.053009033203125 156 107 75
1.714278340339661 -0.516934514045715 -0.056529998779297 137 93 68
1.698218464851379 -0.343973398208618 -0.260656356811523 124 84 59
1.706190705299377 -0.077882647514343 -0.208331108093262 108 68 45
1.725042462348938 0.353250265121460 0.128223419189453 108 64 42
1.725523591041565 0.494503378868103 0.148706436157227 101 57 36
1.727519035339355 0.664890170097351 0.104478836059570 103 65 44
1.716134786605835 0.905428647994995 -0.070727348327637 95 58 42
1.721659064292908 1.068792581558228 0.015972137451172 104 68 44
1.725761055946350 1.172323465347290 0.144084930419922 100 61 42
1.729863762855530 1.335726857185364 0.147951126098633 101 55 32
1.732990503311157 -1.700145840644836 0.092775344848633 165 119 83
1.736330628395081 -1.688708662986755 0.159568786621094 170 124 88
1.725864648818970 -1.542644143104553 0.032316207885742 162 116 82
1.725596547126770 -1.490949034690857 0.026979446411133 165 119 86
1.726140379905701 -1.413504242897034 -0.030568122863770 156 109 76
1.727860212326050 -1.162716984748840 0.018947601318359 151 105 72
1.719145059585571 -0.922335028648376 -0.112532615661621 144 100 71
1.719846487045288 -0.482850313186646 -0.092526435852051 133 89 62
1.716207265853882 -0.019855618476868 -0.139719009399414 102 60 38
1.723529338836670 0.090378761291504 -0.039701461791992 114 70 49
1.732661128044128 0.547516763210297 0.099906921386719 104 60 37
1.724716067314148 0.810226500034332 0.040376663208008 99 57 41
1.739884614944458 -1.621346116065979 0.110481262207031 160 114 78
1.730961322784424 -1.402459025382996 -0.027418136596680 156 110 77
1.726233124732971 -0.825034737586975 -0.114894866943359 138 91 63
1.716170907020569 -0.373318076133728 -0.260707855224609 128 84 58
1.714243769645691 -0.117356538772583 -0.284973144531250 109 67 45
1.732772827148438 0.112017631530762 -0.062177658081055 110 68 46
1.732667207717896 0.263069152832031 -0.008966445922852 115 70 49
1.737558722496033 0.424991369247437 0.084053039550781 110 68 46
1.736870646476746 0.627772510051727 0.054895401000977 103 64 41
1.735482096672058 0.661405265331268 0.063928604125977 104 66 45
1.729105830192566 0.957870304584503 -0.074164390563965 99 62 46
1.742712974548340 1.444469451904297 0.148727416992188 86 38 15
1.746152043342590 1.846934318542480 0.204895019531250 109 62 42
1.751508116722107 -1.731572985649109 0.126323699951172 169 123 87
1.737356066703796 -1.347934603691101 -0.065074920654297 159 113 80
1.742707133293152 -1.252114892005920 -0.043059349060059 153 103 69
1.737614631652832 -0.696860194206238 -0.054266929626465 141 95 71
1.733124494552612 -0.248537302017212 -0.231290817260742 120 76 51
1.726135611534119 -0.154313445091248 -0.256470680236816 120 78 53
1.730001807212830 0.163254261016846 -0.106165885925293 109 67 45
1.735925316810608 0.249328136444092 -0.056143760681152 113 68 47
1.749327182769775 0.356488108634949 0.097230911254883 106 65 43
1.743405818939209 0.730611085891724 0.027334213256836 101 61 45
1.732603788375854 0.994685769081116 -0.061074256896973 88 50 31
1.747869849205017 1.173935174942017 0.135362625122070 99 58 38
1.744509577751160 1.209067225456238 0.089174270629883 99 57 37
1.752299189567566 1.360691666603088 0.170389175415039 103 57 33
1.747695922851563 1.783707618713379 0.079704284667969 110 63 43
1.748901367187500 1.872740507125854 0.094072341918945 112 65 45
1.732297420501709 2.016337871551514 -0.065653800964355 108 63 46
1.756254315376282 -1.755173563957214 0.113758087158203 170 124 88
1.748567700386047 -1.492843985557556 0.045354843139648 159 113 80
1.760027647018433 -1.104832768440247 0.057968139648438 154 106 75
1.747052431106567 -0.585936069488525 -0.070167541503906 134 89 65
1.715063929557800 -0.200886368751526 -0.415787696838379 123 81 56
1.737285256385803 0.097679734230042 -0.134607315063477 110 68 46
1.743444442749023 0.787471890449524 -0.081277847290039 99 57 41
1.741514444351196 0.856780290603638 -0.090734481811523 101 62 45
1.743636488914490 1.048734664916992 -0.059956550598145 98 60 39
1.757904648780823 1.255174756050110 0.144842147827148 89 46 27
1.759927392005920 1.395079374313354 0.129566192626953 111 63 40
1.750890851020813 2.065803050994873 0.059894561767578 114 69 50
1.752954244613647 -1.287613511085510 -0.062174797058105 156 107 74
1.758926987648010 -1.109558701515198 0.040180206298828 158 109 77
1.750496506690979 -0.888979792594910 -0.097259521484375 148 101 73
1.750117778778076 -0.610905766487122 -0.059299468994141 134 90 65
1.750117182731628 -0.522882699966431 -0.104595184326172 134 90 65
1.743637681007385 -0.456498146057129 -0.164864540100098 124 80 52
1.738539218902588 -0.410158157348633 -0.177758216857910 128 84 57
1.735687613487244 -0.069761157035828 -0.249754905700684 117 75 53
1.743487954139709 0.055905580520630 -0.167564392089844 113 72 50
1.758782267570496 0.483619391918182 0.096431732177734 108 67 45
1.760636091232300 0.565154433250427 0.075529098510742 106 64 42
1.766160130500793 1.503825426101685 0.157754898071289 110 62 39
1.763479590415955 1.556083798408508 0.096990585327148 104 54 31
1.761754512786865 1.582732796669006 0.130380630493164 101 53 30
1.763473868370056 1.757433414459229 0.118516921997070 101 54 34
1.751197695732117 1.929754972457886 -0.048192977905273 111 64 44
1.766377210617065 -1.825505852699280 0.036371231079102 171 125 92
1.762325763702393 -1.488448977470398 0.031780242919922 160 114 81
1.750369071960449 -0.961858868598938 -0.129348754882813 144 99 70
1.756813764572144 -0.634679913520813 -0.082261085510254 136 92 67
1.776989459991455 1.653549075126648 0.244539260864258 106 58 36
1.775754690170288 -1.782256245613098 0.067731857299805 172 126 93
1.777315258979797 -1.727395415306091 0.116891860961914 166 120 84
1.766237497329712 -1.261391282081604 -0.058065414428711 160 110 77
1.761940240859985 -0.788890004158020 -0.067074775695801 134 88 62
1.758881568908691 0.075628042221069 -0.172814369201660 114 73 51
1.758069753646851 0.088665366172791 -0.154549598693848 115 73 51
1.754239678382874 0.139752864837646 -0.162740707397461 107 65 43
1.763494729995728 0.317727565765381 -0.046092033386230 109 68 46
1.770416140556335 0.636107802391052 -0.007642745971680 105 66 44
1.767386674880981 0.696323931217194 -0.060580253601074 107 68 49
1.767105460166931 1.984344840049744 -0.045707702636719 117 70 54
1.770300507545471 -0.656223893165588 -0.066812515258789 139 93 69
1.753906607627869 -0.122551202774048 -0.262655258178711 121 79 55
1.766122221946716 0.174763441085815 -0.153709411621094 111 69 47
1.766263127326965 0.306716322898865 -0.062354087829590 109 68 46
1.775374889373779 0.342514753341675 -0.046848297119141 108 67 47
1.778073430061340 0.616067230701447 -0.020250320434570 100 59 37
1.767262339591980 0.908881783485413 -0.100432395935059 104 65 48
1.787322998046875 1.418646454811096 0.146537780761719 87 37 14
1.781160116195679 1.558151721954346 0.095445632934570 110 60 37
1.772734045982361 1.881484508514404 -0.000858306884766 110 63 43
1.787169694900513 -1.577102303504944 0.048700332641602 164 118 82
1.785031557083130 -1.484786868095398 -0.008508682250977 159 113 80
1.779319763183594 -1.380198597908020 -0.097563743591309 155 109 76
1.783784389495850 -1.181908011436462 -0.045132637023926 158 109 76
1.776490092277527 -0.871310830116272 -0.062733650207520 140 93 65
1.778202533721924 -0.561033368110657 -0.072389602661133 139 95 70
1.770045042037964 -0.477803826332092 -0.123711585998535 132 88 63
1.771553754806519 0.049432396888733 -0.164668083190918 117 75 52
1.774101853370667 0.244826912879944 -0.107916831970215 100 59 37
1.770698189735413 0.875114798545837 -0.121320724487305 98 59 42
1.783305764198303 1.952057838439941 -0.008817672729492 109 61 44
1.798106074333191 -1.595779776573181 0.064645767211914 164 118 82
1.788487195968628 -1.431935191154480 -0.065416336059570 154 108 74
1.780806541442871 -1.338022112846375 -0.097336769104004 161 115 82
1.786396622657776 -1.311314225196838 -0.105587959289551 158 112 79
1.787451386451721 -1.292815566062927 -0.071515083312988 156 107 75
1.781176447868347 -0.899007201194763 -0.094591140747070 146 99 71
1.787679791450500 -0.715139985084534 -0.034222602844238 142 95 69
1.784682273864746 -0.625212430953979 -0.071825981140137 136 92 65
1.766113281250000 -0.337183356285095 -0.365712165832520 130 85 62
1.760525226593018 -0.162088394165039 -0.388560295104980 115 71 46
1.773855924606323 -0.040060639381409 -0.216516494750977 115 70 49
1.789708971977234 0.422297716140747 0.004537582397461 101 60 42
1.789322614669800 0.495906412601471 -0.015847206115723 106 66 42
1.779165744781494 0.745639443397522 -0.141365051269531 105 64 46
1.780336022377014 1.032839894294739 -0.116232872009277 107 66 46
1.798143148422241 1.273535251617432 0.137968063354492 107 58 41
1.804646611213684 1.330371141433716 0.153978347778320 101 53 33
1.798461198806763 -1.742571473121643 0.077278137207031 166 120 84
1.804557323455811 -1.714280486106873 0.086126327514648 168 122 86
1.794913411140442 -0.744645953178406 -0.037573814392090 139 92 66
1.787394523620605 -0.267976522445679 -0.226065635681152 124 78 58
1.767257690429688 -0.195758581161499 -0.438922882080078 118 74 49
1.785675764083862 0.006296277046204 -0.198616027832031 118 73 50
1.795954942703247 0.372323513031006 0.004877090454102 108 67 49
1.800545096397400 0.566451787948608 0.030700683593750 99 57 35
1.791048169136047 0.702103018760681 -0.074421882629395 101 60 42
1.789342164993286 0.815997123718262 -0.091361045837402 102 60 43
1.798117041587830 1.219943642616272 0.070116043090820 97 50 32
1.809326648712158 1.349989295005798 0.164306640625000 107 56 35
1.797050237655640 1.839174389839172 0.014699935913086 105 58 38
1.806961774826050 -1.026485800743103 -0.059678077697754 149 102 74
1.784374356269836 -0.396543383598328 -0.285718917846680 133 89 64
1.799517631530762 -0.263021230697632 -0.132289886474609 127 80 59
1.785490870475769 -0.069931149482727 -0.209002494812012 111 66 44
1.791791319847107 0.119163274765015 -0.227321624755859 112 70 48
1.803566336631775 0.448895454406738 0.022579193115234 106 65 45
1.802247524261475 0.719896376132965 -0.002986907958984 103 62 44
1.820073723793030 1.485023617744446 0.199064254760742 100 50 27
1.804678559303284 2.072810888290405 0.039516448974609 109 62 44
1.802848100662231 -0.962813973426819 -0.126623153686523 139 92 64
1.807477712631226 -0.491239666938782 -0.136652946472168 133 89 64
1.808457851409912 0.619337737560272 -0.077842712402344 100 59 37
1.820499181747437 1.359537839889526 0.170742034912109 110 60 37
1.825664877891541 1.512187123298645 0.215551376342773 103 53 30
1.833108782768250 1.732265710830688 0.288745880126953 104 57 37
1.818132042884827 -1.713544249534607 0.047777175903320 170 124 88
1.823567986488342 -1.652706503868103 0.067905426025391 165 119 83
1.814919829368591 -1.044400334358215 -0.136288642883301 150 103 72
1.812962293624878 -0.801471114158630 -0.055091857910156 135 87 63
1.814838647842407 -0.753653407096863 -0.050241470336914 137 90 65
1.804857969284058 -0.627213001251221 -0.092159271240234 138 92 66
1.793455839157104 -0.393025755882263 -0.297063827514648 126 82 57
1.810394525527954 -0.278836727142334 -0.174645423889160 120 73 55
1.807089686393738 0.075345754623413 -0.204520225524902 113 71 47
1.806157112121582 0.186399221420288 -0.140316009521484 113 71 49
1.807566881179810 0.326461434364319 -0.071524620056152 107 66 44
1.811834692955017 1.006863474845886 -0.064064979553223 113 72 52
1.832172632217407 1.572961568832397 0.195482254028320 100 50 27
1.816520929336548 1.878531813621521 -0.052168846130371 111 64 44
1.824285268783569 2.036107063293457 0.060955047607422 115 68 50
1.831549644470215 -1.742853760719299 0.056312561035156 169 123 87
1.828672885894775 -1.671558260917664 0.039663314819336 170 124 88
1.821998715400696 -1.248256087303162 -0.113955497741699 154 108 75
1.821513056755066 -0.717167735099792 -0.036753654479980 140 91 66
1.822115778923035 -0.565378308296204 -0.067433357238770 130 86 59
1.820133209228516 -0.527013540267944 -0.096767425537109 124 80 55
1.802358031272888 -0.379689097404480 -0.302342414855957 124 79 56
1.790409803390503 -0.189275741577148 -0.421601295471191 124 78 54
1.797409176826477 -0.130911231040955 -0.358770370483398 120 74 50
1.806621313095093 -0.016281366348267 -0.248315811157227 115 69 46
1.821440458297729 0.265636920928955 -0.073010444641113 100 58 36
1.822812914848328 0.505952417850494 -0.039347648620605 106 65 40
1.823266863822937 0.848295331001282 -0.043413162231445 101 60 42
1.834277033805847 1.103586673736572 0.100936889648438 99 53 32
1.816241741180420 1.829623341560364 -0.085179328918457 105 58 38
1.856976151466370 -1.637887120246887 0.246124267578125 164 118 82
1.822964191436768 -1.189955353736877 -0.133460998535156 149 103 69
1.828124403953552 -1.122743725776672 -0.088169097900391 149 100 67
1.834662795066833 0.368419885635376 -0.004302978515625 115 73 56
1.829606890678406 0.684015154838562 -0.031730651855469 106 65 45
1.828013658523560 0.878258824348450 -0.078540802001953 99 58 40
1.826233863830566 0.927548050880432 -0.091073989868164 105 67 48
1.837014675140381 1.175887465476990 0.107692718505859 107 59 39
1.846720337867737 1.270331025123596 0.165479660034180 99 46 28
1.839643478393555 2.065634727478027 0.081789016723633 113 66 48
1.843444108963013 -1.767117142677307 0.077005386352539 168 124 89
1.830017566680908 -1.348456978797913 -0.137503623962402 163 117 84
1.829652190208435 -1.318890929222107 -0.144197463989258 160 114 81
1.830723881721497 -1.295791506767273 -0.139833450317383 159 113 80
1.833737254142761 -1.044257283210754 -0.158212661743164 149 103 70
1.828043460845947 -0.906645178794861 -0.100410461425781 135 88 60
1.840776324272156 -0.858017086982727 -0.026152610778809 136 89 61
1.813403248786926 -0.396379351615906 -0.319227218627930 129 84 60
1.816439867019653 -0.118318438529968 -0.315902709960938 115 70 46
1.830566167831421 0.175290465354919 -0.135368347167969 113 71 49
1.830853581428528 0.221143722534180 -0.091236114501953 112 70 48
1.832494735717773 0.600055932998657 -0.067142486572266 104 62 41
1.835327625274658 0.781323313713074 -0.056550979614258 108 66 48
1.857609391212463 1.429282307624817 0.227346420288086 104 52 30
1.840425729751587 -1.128096222877502 -0.107193946838379 148 102 68
1.838938355445862 -0.666895270347595 -0.083107948303223 135 90 64
1.833542346954346 -0.538353204727173 -0.116682052612305 125 81 56
1.836178779602051 -0.503313899040222 -0.134277343750000 126 81 58
1.830796480178833 -0.312162280082703 -0.241213798522949 127 79 57
1.815706610679626 -0.163161873817444 -0.386634826660156 123 77 53
1.829728603363037 0.054795861244202 -0.209069252014160 111 68 45
1.831988811492920 0.138099193572998 -0.175475120544434 116 74 52
1.839259266853333 0.187609553337097 -0.124741554260254 110 68 48
1.837723374366760 0.841017544269562 -0.075204849243164 107 64 45
1.846992015838623 1.201863408088684 0.088659286499023 106 58 38
1.868537187576294 1.380761623382568 0.247493743896484 103 49 25
1.860191464424133 1.460845351219177 0.212383270263672 109 57 35
1.855831623077393 1.694914460182190 0.198539733886719 107 60 40
1.841589331626892 1.847988128662109 -0.073836326599121 110 62 42
1.844074487686157 1.972986698150635 -0.017713546752930 111 63 41
1.852466940879822 -1.682601094245911 -0.008337020874023 167 121 85
1.846542596817017 -1.067500472068787 -0.151133537292480 148 102 68
1.846489667892456 -0.799063563346863 -0.041021347045898 144 97 71
1.847040414810181 0.220205068588257 -0.098058700561523 109 67 45
1.843379974365234 0.514056861400604 -0.144513130187988 104 63 41
1.846225976943970 0.575646996498108 -0.088914871215820 110 68 46
1.854480862617493 0.739030063152313 -0.027601242065430 99 58 36
1.850841999053955 0.955344915390015 -0.079015731811523 106 65 45
1.856458902359009 1.765847206115723 0.008279800415039 116 69 49
1.849134087562561 1.829102396965027 -0.088184356689453 114 67 47
1.858413815498352 -1.421247363090515 -0.063400268554688 161 115 81
1.860404849052429 -0.831662058830261 -0.034766197204590 146 99 71
1.852476835250854 -0.631609559059143 -0.119733810424805 134 88 62
1.854285717010498 -0.615355253219604 -0.123955726623535 134 88 62
1.844608783721924 -0.344901442527771 -0.234457969665527 123 75 53
1.875250339508057 1.334169864654541 0.168350219726563 107 55 34
1.875700473785400 1.523426055908203 0.155591964721680 101 53 30
1.862919211387634 1.637570381164551 0.105295181274414 105 54 33
1.869444131851196 -1.662077307701111 0.030708312988281 170 124 90
1.863735437393188 -1.007053017616272 -0.061467170715332 148 102 69
1.858941197395325 -0.484485745429993 -0.090044975280762 136 92 69
1.845238089561462 0.020865440368652 -0.252037048339844 114 70 45
1.849377870559692 0.104746222496033 -0.254160881042480 114 72 50
1.857849955558777 0.490840256214142 -0.136050224304199 105 62 41
1.858964681625366 0.952826023101807 -0.080793380737305 104 63 41
1.869492530822754 1.272221684455872 0.014904022216797 105 54 35
1.882650136947632 1.740192294120789 0.179628372192383 102 55 35
1.855467915534973 1.827168583869934 -0.129890441894531 114 67 47
1.855326056480408 1.847676992416382 -0.122953414916992 110 62 42
1.863188505172729 1.984348535537720 -0.064102172851563 117 69 48
1.866135954856873 -1.159919381141663 -0.105201721191406 153 107 73
1.859591007232666 -0.701936364173889 -0.156245231628418 138 92 68
1.864457726478577 -0.589181184768677 -0.119668960571289 135 88 62
1.875903487205505 -0.260856151580811 0.021492004394531 125 77 57
1.854751110076904 0.139698386192322 -0.200301170349121 114 72 50
1.868175148963928 0.177621603012085 -0.091469764709473 116 74 52
1.872915387153625 0.306139230728149 -0.022314071655273 109 64 41
1.880494356155396 0.348461151123047 0.029947280883789 108 66 44
1.865579962730408 0.842847347259521 -0.092185974121094 104 59 38
1.872703790664673 0.987522721290588 -0.019050598144531 104 62 40
1.880125880241394 1.090526819229126 0.036233901977539 100 56 31
1.876242160797119 1.172126054763794 0.068725585937500 104 56 34
1.886293411254883 1.587118983268738 0.196557998657227 108 58 35
1.890982508659363 1.618308067321777 0.194894790649414 107 56 35
1.885312795639038 1.659407258033752 0.164232254028320 110 62 42
1.893978357315063 -1.733112215995789 0.079189300537109 169 124 90
1.891626238822937 -1.579900145530701 0.073545455932617 162 116 82
1.873520255088806 -1.335996031761169 -0.099982261657715 159 113 80
1.875794649124146 -1.224718928337097 -0.130635261535645 153 107 73
1.880709052085876 -0.908152222633362 -0.098379135131836 146 100 67
1.876032590866089 -0.862511038780212 -0.116040229797363 145 98 68
1.879541277885437 -0.766972422599792 -0.048319816589355 138 91 65
1.870887637138367 -0.621076822280884 -0.129972457885742 140 93 67
1.878652453422546 -0.232585430145264 -0.039962768554688 123 75 55
1.863130927085876 -0.041571974754333 -0.233884811401367 121 76 53
1.881916165351868 0.227996468544006 -0.019248962402344 108 66 44
1.881588220596313 0.272526860237122 0.003574371337891 113 71 47
1.863052248954773 0.423200786113739 -0.246638298034668 107 62 43
1.892101883888245 1.440005302429199 0.142234802246094 106 54 32
1.888490200042725 1.539308309555054 0.077695846557617 106 56 33
1.899612545967102 -1.797001004219055 0.123716354370117 171 128 94
1.898717403411865 -1.763916134834290 0.107587814331055 168 123 90
1.878564238548279 -1.117584586143494 -0.130112648010254 143 97 61
1.882045507431030 -0.928058743476868 -0.117307662963867 149 102 72
1.862962603569031 0.039971351623535 -0.296765327453613 123 79 54
1.873860716819763 0.384031534194946 -0.164936065673828 107 64 45
1.873641371726990 0.456428945064545 -0.259354591369629 112 66 47
1.884831428527832 0.608609497547150 -0.081795692443848 102 60 38
1.878356695175171 0.897683382034302 -0.110544204711914 102 57 36
1.875758886337280 0.921254277229309 -0.107256889343262 96 55 33
1.886905074119568 1.014253854751587 -0.019673347473145 98 53 32
1.894165039062500 1.104757666587830 0.037483215332031 105 58 34
1.895096063613892 1.147127151489258 0.045501708984375 100 52 29
1.882634878158569 1.927081108093262 -0.091142654418945 104 56 34
1.907607197761536 -1.722354292869568 0.118284225463867 165 121 86
1.880982756614685 -1.051229119300842 -0.219552993774414 149 103 69
1.884687900543213 -0.655101418495178 -0.155138015747070 136 90 64
1.888538360595703 -0.531188011169434 -0.111794471740723 133 87 62
1.889263510704041 -0.427953124046326 -0.156118392944336 128 82 62
1.891301751136780 -0.314195513725281 -0.069530487060547 125 77 55
1.888508200645447 0.530635118484497 -0.146436691284180 112 70 45
1.893090486526489 0.789116501808167 -0.071775436401367 107 64 42
1.898206830024719 1.479887247085571 0.086986541748047 108 56 34
1.899610757827759 -1.146482110023499 -0.097366333007813 147 101 68
1.898572802543640 -1.020593047142029 -0.071679115295410 144 98 65
1.893456459045410 -0.873465418815613 -0.083597183227539 142 96 63
1.880353331565857 -0.106944322586060 -0.270313262939453 127 79 57
1.910150766372681 0.254701972007751 0.055637359619141 112 67 44
1.908752441406250 0.280398011207581 0.032804489135742 112 67 43
1.884953141212463 0.480259478092194 -0.234647750854492 108 61 41
1.888695478439331 0.517898321151733 -0.165701866149902 109 66 43
1.897704243659973 0.753053784370422 -0.065676689147949 103 60 41
1.894719243049622 0.821625709533691 -0.083588600158691 106 61 38
1.908753156661987 -1.305721163749695 -0.057625770568848 158 112 78
1.899951577186584 -0.504651069641113 -0.125220298767090 132 87 63
1.905606865882874 -0.288244605064392 -0.063906669616699 127 79 57
1.898528814315796 -0.149196028709412 -0.145408630371094 123 77 54
1.906258463859558 0.555762827396393 -0.112947463989258 105 63 39
1.898419857025146 0.642244815826416 -0.131159782409668 102 60 38
1.904879808425903 0.689673364162445 -0.094084739685059 108 66 44
1.902536869049072 0.917692780494690 -0.103307723999023 105 60 36
1.903469443321228 0.933414518833160 -0.105160713195801 103 60 36
1.903908491134644 0.960430741310120 -0.078570365905762 106 61 40
1.925611495971680 1.584967613220215 0.152460098266602 103 53 30
1.917438030242920 1.630393385887146 0.132381439208984 106 55 34
1.924196362495422 1.682301640510559 0.202995300292969 107 56 37
1.923491239547729 1.720979809761047 0.215581893920898 111 63 43
1.936554908752441 -1.696737647056580 0.200517654418945 177 132 99
1.912932991981506 -1.181906819343567 -0.104220390319824 156 110 77
1.901768922805786 -0.954267859458923 -0.146884918212891 150 104 71
1.907490968704224 -0.693688035011292 -0.101249694824219 138 92 66
1.909798264503479 -0.597864985466003 -0.143695831298828 133 86 60
1.887656688690186 0.143058538436890 -0.337358474731445 116 71 50
1.915343046188354 0.344413876533508 -0.019482612609863 110 65 44
1.911779284477234 0.381022870540619 -0.092102050781250 112 67 46
1.905166983604431 0.496781885623932 -0.154566764831543 107 62 39
1.928566098213196 1.248908400535583 0.146799087524414 102 52 29
1.909700989723206 1.802462339401245 -0.095130920410156 116 67 50
1.934243917465210 -1.851932168006897 0.121301651000977 180 137 105
1.942264914512634 -1.748462557792664 0.157045364379883 170 125 92
1.925997853279114 -1.445337891578674 -0.009681701660156 162 116 82
1.917403817176819 -0.850569367408752 -0.112631797790527 148 99 67
1.926553845405579 0.229999184608459 0.025850296020508 110 65 42
1.924100399017334 0.292300462722778 0.000848770141602 111 69 46
1.907235026359558 0.575422108173370 -0.151744842529297 103 61 37
1.921710610389709 1.409035086631775 -0.043611526489258 106 54 32
1.931552529335022 2.038479089736938 0.106828689575195 116 67 51
1.922575712203979 -0.549720406532288 -0.132352828979492 131 84 58
1.915314793586731 -0.094229817390442 -0.189862251281738 125 77 55
1.928958296775818 0.204018115997314 -0.045125961303711 115 70 47
1.932806372642517 0.249923348426819 0.025085449218750 111 67 42
1.919096946716309 0.548943459987640 -0.134142875671387 103 61 36
1.921792507171631 0.706490337848663 -0.094195365905762 102 60 38
1.920142531394958 0.774224936962128 -0.109241485595703 106 64 42
1.928173899650574 0.938047349452972 -0.105658531188965 108 62 38
1.923961520195007 1.442617893218994 -0.050687789916992 107 55 33
1.941759109497070 1.591685533523560 0.138982772827148 105 53 31
1.944098472595215 1.640789866447449 0.153192520141602 114 62 41
1.921380996704102 1.936195254325867 -0.097853660583496 110 62 42
1.935495615005493 -1.568252205848694 -0.011629104614258 165 118 88
1.931322574615479 -1.510734915733337 -0.106442451477051 164 118 85
1.936174988746643 -1.375026106834412 -0.030828475952148 156 110 76
1.931079626083374 -1.153257250785828 -0.110091209411621 152 106 73
1.935768604278564 -0.767498612403870 -0.052800178527832 137 90 62
1.927610754966736 -0.409668684005737 -0.120408058166504 137 89 69
1.935381054878235 -0.329352378845215 -0.073063850402832 122 74 52
1.921714305877686 0.095149278640747 -0.236221313476563 123 78 57
1.924794912338257 0.518202483654022 -0.150323867797852 107 64 39
1.924082994461060 0.641716778278351 -0.176557540893555 104 62 40
1.927060365676880 0.841708958148956 -0.138737678527832 103 57 33
1.967141509056091 -1.663286566734314 0.251350402832031 171 126 93
1.946239590644836 -1.447134613990784 -0.018369674682617 159 113 79
1.918449282646179 -0.886189103126526 -0.283987998962402 144 96 63
1.930804729461670 -0.585714221000671 -0.165533065795898 134 84 59
1.940439701080322 -0.194942474365234 -0.047317504882813 122 76 52
1.932069897651672 0.452265083789825 -0.199873924255371 107 62 41
1.940253257751465 0.802598118782043 -0.114480972290039 104 60 35
1.948043346405029 1.081030368804932 0.011665344238281 87 37 14
1.947159767150879 1.513802766799927 0.032196044921875 114 62 40
1.956862688064575 1.793228149414063 0.137329101562500 113 62 45
1.940866947174072 1.836808204650879 -0.065607070922852 115 66 49
1.933697342872620 1.875519633293152 -0.164381980895996 115 67 47
1.936728715896606 1.959527492523193 -0.076309204101563 113 65 45
1.951784610748291 -1.453864216804504 -0.049874305725098 163 114 81
1.948921084403992 -1.298666119575500 -0.088195800781250 149 103 69
1.945227742195129 -1.233278632164001 -0.113394737243652 160 111 78
1.952738285064697 -1.102926850318909 -0.015277862548828 146 101 67
1.955039143562317 0.180144667625427 -0.022844314575195 118 73 50
1.940610170364380 0.417817115783691 -0.171763420104980 111 66 44
1.934775471687317 0.601223170757294 -0.176750183105469 110 68 44
1.946551918983459 0.707499623298645 -0.114590644836426 105 63 41
1.961687564849854 1.169386148452759 0.074539184570313 109 61 38
1.960062980651855 1.204962730407715 0.057947158813477 102 54 32
1.969799041748047 1.770426273345947 0.222249984741211 108 57 40
1.961786746978760 -1.365704894065857 -0.012809753417969 163 115 79
1.955965518951416 -1.137540459632874 -0.065958976745605 146 100 67
1.956502318382263 -1.130352616310120 -0.040165901184082 146 101 68
1.942839860916138 -0.617002367973328 -0.157164573669434 142 94 67
1.943991780281067 0.055537223815918 -0.213553428649902 114 67 47
1.955172061920166 0.164607048034668 -0.047108650207520 119 74 53
1.961306810379028 0.266034126281738 0.025066375732422 112 67 44
1.955995917320251 0.860566079616547 -0.070900917053223 110 65 35
1.964821577072144 1.246960997581482 0.093761444091797 103 56 30
1.967193007469177 1.327243924140930 0.081510543823242 96 48 28
1.968569636344910 2.081393003463745 0.121582031250000 113 64 49
1.981936693191528 -1.754395842552185 0.159635543823242 170 127 95
1.988621711730957 -1.694343924522400 0.171855926513672 172 128 96
1.964796423912048 -1.544398665428162 -0.035503387451172 168 123 90
1.962363958358765 -1.461099743843079 -0.021933555603027 164 116 83
1.968827843666077 -1.037190079689026 -0.010313034057617 148 101 67
1.970096230506897 -0.787559866905212 0.044469833374023 141 91 64
1.954727888107300 -0.681627392768860 -0.111641883850098 140 93 67
1.958248972892761 -0.368921518325806 -0.117890357971191 126 78 58
1.958455562591553 -0.312314629554749 -0.072119712829590 132 84 62
1.957978248596191 -0.148753166198730 -0.100137710571289 120 72 49
1.954848408699036 -0.072927355766296 -0.144345283508301 118 71 48
1.950535655021667 0.498747467994690 -0.176974296569824 109 64 41
1.964944839477539 0.728016734123230 -0.065959930419922 101 58 38
1.961986303329468 0.759938478469849 -0.074599266052246 105 60 37
1.976255536079407 1.377286911010742 0.084974288940430 105 57 37
1.985333681106567 1.734743595123291 0.229753494262695 114 62 46
1.959840297698975 1.949209332466125 -0.108139991760254 108 59 44
1.990950584411621 -1.838744997978210 0.177440643310547 177 134 102
1.993623018264771 -1.734097838401794 0.178680419921875 177 134 102
1.994404196739197 -1.637868285179138 0.211475372314453 167 120 90
1.967136025428772 -1.185784220695496 -0.117842674255371 158 109 76
1.972671508789063 -1.072636723518372 -0.027235984802246 143 97 63
1.964345932006836 -0.555736899375916 -0.138104438781738 135 88 60
1.960989952087402 -0.450117588043213 -0.186521530151367 127 79 57
1.964748740196228 -0.377133369445801 -0.128470420837402 123 75 55
1.969128847122192 0.790197610855103 -0.047115325927734 100 54 30
1.973285555839539 1.104836463928223 0.020366668701172 102 54 32
1.980672955513000 1.301893949508667 0.102922439575195 106 58 36
1.985554695129395 1.585678219795227 0.154439926147461 107 55 33
1.983987212181091 -1.003035664558411 0.001111984252930 141 95 62
1.951978445053101 -0.874894499778748 -0.382681846618652 143 94 62
1.972659349441528 -0.685417532920837 -0.140439987182617 138 91 65
1.970574617385864 -0.508767604827881 -0.175868988037109 139 92 64
1.975176453590393 -0.193595170974731 -0.039373397827148 123 75 52
1.963512659072876 -0.125032901763916 -0.138749122619629 126 78 55
1.970961570739746 0.338044285774231 -0.098085403442383 113 68 46
1.961757421493530 0.513670980930328 -0.233907699584961 110 65 42
1.971317410469055 0.705178916454315 -0.104687690734863 104 59 38
1.977422237396240 0.987586617469788 -0.030678749084473 111 61 38
1.986233472824097 1.251466870307922 0.076440811157227 104 56 33
1.991598844528198 1.433262825012207 0.083341598510742 102 52 29
1.996566891670227 1.723548412322998 0.172630310058594 115 64 50
2.004903078079224 -1.749977231025696 0.175355911254883 171 128 96
1.981166362762451 -1.231082081794739 -0.129358291625977 158 109 76
1.969862580299377 -0.455717682838440 -0.155678749084473 129 81 59
1.977509140968323 -0.351296782493591 -0.126733779907227 133 85 64
1.972408890724182 0.007619857788086 -0.214139938354492 122 76 53
1.977358698844910 0.126538515090942 -0.108502388000488 114 67 47
1.987682104110718 0.247237920761108 -0.045865058898926 108 63 40
1.990235686302185 0.288419008255005 -0.051001548767090 110 65 42
1.998610377311707 0.902171492576599 0.071868896484375 115 67 39
2.013325691223145 -1.695646405220032 0.188119888305664 176 133 101
1.986885547637939 -0.767886042594910 -0.111953735351563 145 96 66
1.983152270317078 -0.618556499481201 -0.123567581176758 137 90 60
1.983760714530945 -0.604343771934509 -0.137715339660645 135 88 58
1.992922544479370 -0.262745857238770 -0.073188781738281 109 61 39
1.992497563362122 -0.259746551513672 -0.071442604064941 112 64 42
1.984012007713318 -0.095873832702637 -0.147664070129395 123 75 53
1.971901059150696 -0.016312718391418 -0.272751808166504 119 73 51
1.982158780097961 0.625306367874146 -0.185389518737793 101 58 33
2.003855228424072 0.765373468399048 0.036491394042969 106 60 36
1.998117685317993 1.178443908691406 0.051883697509766 109 61 39
2.002775192260742 -1.336561322212219 -0.035782814025879 157 111 77
1.997117519378662 -0.192410826683044 -0.063774108886719 126 79 55
1.996756792068481 0.174843668937683 -0.072235107421875 111 66 45
1.987155914306641 0.493845820426941 -0.170825958251953 112 67 44
1.987682342529297 0.660329341888428 -0.186579704284668 108 64 39
1.994310140609741 0.679461836814880 -0.118711471557617 111 67 42
2.001903057098389 1.061876058578491 -0.019586563110352 108 57 36
2.010970115661621 1.406224370002747 0.108745574951172 103 55 33
2.021682977676392 -1.863774418830872 0.174488067626953 182 139 106
2.009508609771729 -1.456044793128967 -0.004158020019531 156 110 77
1.976032018661499 -0.862561106681824 -0.369715690612793 143 96 63
1.996628999710083 -0.553193688392639 -0.154175758361816 139 92 62
2.002564668655396 -0.465942263603210 -0.160057067871094 133 86 59
2.009756565093994 0.249238848686218 -0.025821685791016 115 69 47
1.998046040534973 0.401111304759979 -0.158026695251465 109 64 42
1.992988944053650 0.474936187267303 -0.197063446044922 109 64 41
2.009139060974121 0.977793335914612 0.025136947631836 108 57 32
2.007564544677734 1.114437937736511 0.008684158325195 102 53 32
2.018296718597412 1.214329957962036 0.094772338867188 101 53 30
2.019586563110352 1.243299007415771 0.119316101074219 103 55 32
2.032133102416992 1.765345215797424 0.265344619750977 115 66 51
2.014883756637573 -1.410219073295593 0.016950607299805 161 115 81
2.001312971115112 -0.782570719718933 -0.175092697143555 142 93 63
2.008049488067627 -0.371505379676819 -0.122208595275879 125 77 55
2.008816957473755 -0.273174881935120 -0.064686775207520 114 66 43
2.007235050201416 -0.149042248725891 -0.082689285278320 125 77 51
