ply
format ascii 1.0
element vertex 718
property double x
property double y
property double z
property uchar red
property uchar green
property uchar blue
end_header
-3.131046295166016 -3.792664051055908 -2.131381988525391 245 202 160
-3.402517318725586 -2.213207721710205 -1.255207061767578 206 145 109
-3.539610862731934 0.035241603851318 -0.691444396972656 157 73 61
-3.454055786132813 0.710067629814148 -0.921867370605469 179 103 80
-3.625588417053223 1.264690518379211 -0.339786529541016 190 125 95
-4.093261718750000 3.463964462280273 1.303943634033203 201 136 106
-3.252906799316406 -3.331828594207764 -1.557270050048828 230 177 138
-3.319419860839844 -1.869453430175781 -1.321735382080078 210 144 111
-3.364935874938965 -0.991423368453979 -1.225620269775391 139 59 48
-3.460100173950195 1.405496239662170 -0.813507080078125 192 127 97
-3.907482147216797 2.527150154113770 0.755664825439453 198 133 106
-2.992613792419434 -4.477163314819336 -2.338062286376953 244 207 165
-3.216267585754395 -3.211869239807129 -1.507137298583984 231 177 139
-3.278347015380859 -2.791756153106689 -1.399822235107422 208 154 116
-3.317926406860352 -2.249260902404785 -1.307548522949219 206 144 108
-3.453742027282715 0.337970972061157 -0.653911590576172 142 64 54
-3.301755905151367 1.566022038459778 -1.216941833496094 190 126 99
-3.665185928344727 1.932765603065491 0.163864135742188 186 125 97
-4.052495002746582 2.834884166717529 1.473770141601563 195 131 102
-3.904625892639160 3.179130554199219 0.980697631835938 197 134 101
-3.981986045837402 3.739573955535889 1.156402587890625 203 137 105
-2.991325378417969 -4.079191684722900 -2.146724700927734 250 210 169
-3.013064384460449 -3.833211898803711 -2.091819763183594 240 197 155
-3.372459411621094 -1.540840625762939 -0.882507324218750 180 103 84
-3.458844184875488 1.778591513633728 -0.609413146972656 188 126 101
-3.636619567871094 3.944427967071533 0.092849731445313 212 143 110
-2.905232429504395 -4.555360317230225 -2.366699218750000 247 210 168
-3.214452743530273 -1.875900864601135 -1.180896759033203 197 123 101
-3.319453239440918 -0.328150987625122 -0.924289703369141 177 89 86
-3.434051513671875 0.494380831718445 -0.567569732666016 166 88 76
-3.650465011596680 2.518142223358154 0.317276000976563 186 122 95
-3.488677024841309 4.021552562713623 -0.342678070068359 204 136 101
-2.924350738525391 -3.857048511505127 -2.150146484375000 245 201 163
-3.002228736877441 -3.444462299346924 -1.814620971679688 233 181 143
-3.205866813659668 -2.863609790802002 -1.248317718505859 217 161 124
-3.349424362182617 -0.120909571647644 -0.684535980224609 135 46 44
-3.364720344543457 0.067839980125427 -0.643947601318359 130 48 42
-3.228006362915039 0.815322041511536 -1.031078338623047 179 99 81
-2.956675529479980 1.507592082023621 -2.112316131591797 187 121 95
-2.935414314270020 -3.550278663635254 -1.910110473632813 231 181 144
-3.196637153625488 -2.092640399932861 -1.033710479736328 205 135 108
-3.189832687377930 -1.284347891807556 -0.990615844726563 141 60 58
-3.249191284179688 -0.537571310997009 -0.956340789794922 149 65 63
-3.394500732421875 2.145298957824707 -0.367462158203125 190 126 99
-2.765377044677734 -4.565430641174316 -2.532634735107422 240 203 161
-3.244317054748535 -1.700643897056580 -0.757408142089844 153 73 63
-3.758678436279297 2.831454277038574 1.146442413330078 192 128 101
-3.710453987121582 2.928910732269287 0.992637634277344 192 128 100
-3.559217453002930 3.320133209228516 0.321651458740234 194 129 101
-3.163846015930176 -1.798810720443726 -0.904331207275391 167 89 77
-3.165084838867188 -1.511001229286194 -0.838085174560547 133 50 47
-3.111932754516602 -1.243476271629333 -1.078414916992188 133 51 55
-3.223963737487793 0.178572297096252 -0.599586486816406 131 50 53
-2.976224899291992 1.105319142341614 -1.571601867675781 174 96 73
-3.331597328186035 1.855540633201599 -0.181880950927734 188 122 98
-3.578459739685059 2.676288604736328 0.674396514892578 185 124 96
-3.496363639831543 3.922508716583252 0.366756439208984 204 133 103
-2.826004028320313 -3.666447639465332 -1.957496643066406 230 180 144
-3.135128021240234 -2.078694820404053 -0.818656921386719 190 116 96
-3.036130905151367 -0.894872784614563 -1.106227874755859 147 64 73
-3.425042152404785 4.142486095428467 0.221019744873047 210 139 108
-3.049123764038086 -2.648964405059814 -1.037002563476563 204 142 109
-3.038472175598145 -2.396457672119141 -0.981151580810547 209 139 113
-3.066959381103516 -0.624047636985779 -0.947284698486328 132 46 55
-3.050724029541016 0.679112553596497 -0.918270111083984 140 60 59
-3.003043174743652 1.335811257362366 -1.094917297363281 184 108 85
-3.507908821105957 3.312958240509033 0.706771850585938 192 125 99
-2.708208084106445 -4.294606208801270 -2.079502105712891 252 213 172
-2.973365783691406 -3.274611473083496 -1.098953247070313 221 168 132
-3.153034210205078 0.560659050941467 -0.343334197998047 124 45 48
-3.139111518859863 1.787444710731506 -0.570652008056641 188 121 95
-3.226646423339844 2.302342891693115 -0.140171051025391 184 122 97
-3.414861679077148 4.190194129943848 0.453788757324219 208 136 107
-3.744445800781250 4.759773254394531 1.751014709472656 210 141 106
-2.702132225036621 -4.691715717315674 -1.910171508789063 243 205 166
-2.971679687500000 -1.390949130058289 -0.943637847900391 130 49 58
-3.026947975158691 -0.302005290985107 -0.788402557373047 132 45 54
-3.072988510131836 0.334030985832214 -0.577529907226563 129 50 57
-3.250224113464355 2.536637306213379 0.157508850097656 191 129 104
-3.408847808837891 3.135432720184326 0.678203582763672 191 125 99
-3.568956375122070 4.451373100280762 1.321338653564453 201 130 98
-3.584291458129883 4.576755523681641 1.567745208740234 204 133 101
-2.605597496032715 -3.835786342620850 -1.993434906005859 233 183 148
-2.926767349243164 -2.048137903213501 -0.793205261230469 142 63 56
-2.995671272277832 -0.002027511596680 -0.613994598388672 148 63 75
-2.739647865295410 0.912027001380920 -1.486381530761719 140 57 53
-2.808688163757324 1.331041455268860 -1.269157409667969 178 96 83
-3.345333099365234 3.616710186004639 0.838520050048828 210 139 115
-2.637068748474121 -4.081357479095459 -1.809368133544922 238 192 156
-2.558468818664551 -3.555621147155762 -1.974124908447266 230 177 143
-2.820287704467773 -3.295673847198486 -1.057716369628906 220 168 131
-3.221476554870605 4.191469192504883 0.404747009277344 200 125 98
-2.820427894592285 -2.691637992858887 -0.978275299072266 195 129 105
-2.777993202209473 -2.469500064849854 -0.996135711669922 186 113 96
-2.828265190124512 -1.815296888351440 -0.903034210205078 141 59 64
-2.809371948242188 -1.544642686843872 -0.885421752929688 131 49 61
-2.862446784973145 -0.375991344451904 -0.709533691406250 140 54 65
-2.890571594238281 2.069750308990479 -0.643508911132813 192 126 102
-3.163900375366211 2.561819553375244 0.410812377929688 187 126 98
-3.484180450439453 4.681639194488525 1.600486755371094 199 125 96
-2.801490783691406 -3.097424030303955 -0.943824768066406 205 150 115
-2.758023262023926 -1.073019266128540 -1.015407562255859 127 47 60
-2.834254264831543 -0.749207556247711 -0.709438323974609 145 64 74
-2.850009918212891 -0.335691213607788 -0.640743255615234 137 50 63
-2.931380271911621 1.886147856712341 -0.333171844482422 189 117 95
-3.290252685546875 3.039669990539551 1.075538635253906 188 124 97
-2.760256767272949 -2.207638025283813 -0.790416717529297 146 66 64
-2.681103706359863 -1.141315221786499 -1.120441436767578 128 49 62
-3.016764640808105 4.025540351867676 0.165821075439453 203 127 102
-2.400782585144043 -3.931710720062256 -1.991603851318359 231 181 146
-2.796822547912598 -0.117719650268555 -0.586856842041016 132 46 59
-2.776581764221191 0.334723830223083 -0.617244720458984 123 46 56
-2.598423004150391 0.798675417900085 -1.315868377685547 118 37 45
-2.643402099609375 1.383795857429504 -1.108940124511719 163 80 72
-2.934236526489258 2.328362464904785 -0.029792785644531 188 124 99
-3.142696380615234 2.808207035064697 0.747886657714844 184 123 95
-3.193718910217285 4.555634975433350 1.013065338134766 202 128 99
-2.387017250061035 -4.218883037567139 -1.955791473388672 238 194 155
-2.414617538452148 -4.117325305938721 -1.886592864990234 237 191 155
-2.633275985717773 -2.534185647964478 -1.025394439697266 156 83 66
-2.669388771057129 -0.373035907745361 -0.805335998535156 138 54 67
-2.982603073120117 3.718738079071045 0.422328948974609 198 124 101
-2.967254638671875 4.258260250091553 0.262382507324219 206 129 103
-2.366950035095215 -4.677882671356201 -1.843643188476563 254 216 175
-2.336844444274902 -3.880409717559814 -2.013259887695313 228 177 142
-2.546999931335449 -3.451123237609863 -1.241989135742188 217 163 127
-2.545364379882813 -1.090710163116455 -1.144248962402344 123 45 58
-2.597813606262207 0.665658593177795 -0.954898834228516 117 39 52
-2.606882095336914 1.151114583015442 -0.876728057861328 125 43 45
-3.029250144958496 4.475344181060791 0.683403015136719 198 122 96
-2.304858207702637 -4.460825443267822 -1.924186706542969 246 204 164
-2.377029418945313 -3.651070117950439 -1.673225402832031 221 168 134
-2.571965217590332 -2.046507358551025 -0.816303253173828 133 51 64
-2.563655853271484 -1.931317567825317 -0.896549224853516 138 55 65
-2.617554664611816 -0.769229292869568 -0.755519866943359 133 53 64
-2.617832183837891 -0.481637358665466 -0.746433258056641 142 61 74
-2.693056106567383 0.163119912147522 -0.432147979736328 128 49 62
-2.980522155761719 2.670826435089111 0.655048370361328 189 125 98
-2.910903930664063 3.195337295532227 0.421714782714844 194 130 103
-2.502948760986328 -2.701993465423584 -1.043388366699219 157 83 69
-2.530020713806152 -1.555502772331238 -0.912998199462891 137 55 69
-2.638619422912598 0.295472621917725 -0.483806610107422 125 47 60
-2.510841369628906 0.883420109748840 -1.039527893066406 124 42 55
-2.639402389526367 1.409142136573792 -0.560676574707031 136 52 53
-2.706768035888672 2.035029888153076 -0.271362304687500 181 104 88
-2.958821296691895 2.995388984680176 0.770099639892578 192 128 101
-2.812580108642578 3.949682712554932 0.186264038085938 197 124 99
-2.209082603454590 -4.224038600921631 -2.022991180419922 233 188 149
-2.464276313781738 -3.044467449188232 -0.984081268310547 199 136 106
-2.627547264099121 -0.164989829063416 -0.328525543212891 128 48 61
-2.752171516418457 1.932646632194519 0.128265380859375 181 101 89
-2.741653442382813 3.422708511352539 0.165447235107422 188 122 98
-2.791068077087402 3.580443382263184 0.350769042968750 212 145 119
-2.779192924499512 4.308073043823242 0.254093170166016 205 128 103
-2.425616264343262 -1.855896949768066 -0.962299346923828 137 53 66
-2.489834785461426 -1.690169572830200 -0.837295532226563 129 47 59
-2.623930931091309 -0.035431861877441 -0.270462036132813 126 45 60
-2.585218429565430 0.318570375442505 -0.442596435546875 125 48 61
-2.791049957275391 2.701590061187744 0.473529815673828 183 119 92
-2.173215866088867 -4.363756179809570 -1.833202362060547 240 196 157
-2.150320053100586 -4.190074920654297 -1.933704376220703 230 182 145
-2.410813331604004 -3.069637060165405 -0.938743591308594 203 137 110
-2.395168304443359 -2.663453102111816 -0.965835571289063 145 66 61
-2.341370582580566 -1.516821503639221 -1.155811309814453 132 50 63
-2.584437370300293 -0.869991004467010 -0.228481292724609 134 56 69
-2.122726440429688 -4.622188568115234 -1.733631134033203 248 206 166
-2.406652450561523 -1.764650821685791 -0.782230377197266 139 57 69
-2.471287727355957 -0.531871676445007 -0.461429595947266 126 50 63
-2.450656890869141 0.159415960311890 -0.588790893554688 120 44 57
-2.374534606933594 0.713025927543640 -0.858318328857422 134 50 65
-2.512913703918457 1.196600079536438 -0.285213470458984 127 41 52
-2.546536445617676 1.391495585441589 -0.177547454833984 124 38 47
-2.345814704895020 -2.589295387268066 -0.923099517822266 140 60 62
-2.402725219726563 -0.474124312400818 -0.645080566406250 129 53 66
-2.559229850769043 1.600942730903625 -0.064476013183594 128 42 45
-2.068367958068848 -4.662458896636963 -1.742977142333984 243 201 161
-2.250894546508789 -3.650544643402100 -0.982089996337891 218 162 129
-2.655598640441895 2.571528434753418 0.515670776367188 195 128 102
-2.570589065551758 3.070913791656494 0.269390106201172 189 128 100
-2.554982185363770 4.067733287811279 0.259788513183594 196 121 98
-2.045109748840332 -3.924332141876221 -1.640563964843750 219 165 131
-2.265091896057129 -2.960618019104004 -0.873516082763672 161 86 71
-2.286251068115234 -2.189487457275391 -0.722084045410156 134 52 64
-2.302538871765137 -1.939846038818359 -0.636642456054688 136 53 63
-2.301715850830078 -1.678435444831848 -0.661361694335938 133 51 63
-2.276788711547852 -0.643442630767822 -0.766777038574219 133 57 70
-2.239823341369629 0.590298056602478 -0.916587829589844 134 50 64
-2.549176216125488 3.455079078674316 0.370735168457031 196 132 107
-2.570285797119141 3.700339317321777 0.378574371337891 211 143 117
-2.116703033447266 -1.329446315765381 -1.185043334960938 127 46 61
-2.169494628906250 -1.186874151229858 -1.066287994384766 125 47 61
-2.285256385803223 -0.182424664497375 -0.583377838134766 119 47 61
-2.366869926452637 0.841086506843567 -0.321262359619141 132 45 61
-2.324046134948730 1.002918362617493 -0.389415740966797 129 41 56
-2.493844985961914 2.204150199890137 0.264808654785156 195 116 103
-2.506722450256348 3.879129886627197 0.303554534912109 193 121 99
-2.497505187988281 4.073458671569824 0.229812622070313 194 119 96
-1.927923202514648 -4.418864250183105 -1.810310363769531 239 193 154
-1.915997505187988 -4.227329254150391 -1.823627471923828 230 180 143
-2.251609802246094 0.129061102867126 -0.586849212646484 118 43 56
-2.526249885559082 1.837297081947327 0.480506896972656 143 54 58
-2.462625503540039 2.599107742309570 0.298728942871094 197 129 106
-2.490386962890625 3.081589698791504 0.317287445068359 193 132 104
-2.066038131713867 -3.898239135742188 -1.142967224121094 230 175 140
-2.163448333740234 -3.028343915939331 -0.779552459716797 173 97 80
-2.152411460876465 -2.427134037017822 -0.866062164306641 138 57 66
-2.173765182495117 -2.353400230407715 -0.715652465820313 136 55 64
-2.033233642578125 -1.090629816055298 -1.208438873291016 126 50 63
-2.131544113159180 0.384888529777527 -0.852672576904297 137 55 70
-2.401464462280273 1.907122254371643 0.209949493408203 142 51 54
-2.584859848022461 2.894873142242432 1.017097473144531 195 131 106
-2.429936408996582 3.339550018310547 0.371765136718750 189 128 100
-2.447766304016113 3.889237403869629 0.375823974609375 187 116 93
-2.139098167419434 -1.860266208648682 -0.628578186035156 147 65 77
-1.965362548828125 -1.467639803886414 -1.350269317626953 140 58 72
-2.234191894531250 -0.133295059204102 -0.332054138183594 130 58 72
-2.226249694824219 1.448643565177917 -0.232955932617188 124 36 48
-2.462212562561035 2.857479572296143 0.826534271240234 198 133 108
-1.810271263122559 -4.396596431732178 -1.659965515136719 230 182 144
-2.065560340881348 -3.087183475494385 -0.755119323730469 154 78 62
-2.281005859375000 2.070349216461182 0.175540924072266 155 65 64
-2.341578483581543 3.295313358306885 0.435821533203125 191 127 100
-2.279848098754883 3.654054641723633 0.330226898193359 194 127 101
-2.323312759399414 4.257067680358887 0.409423828125000 205 129 105
-1.976306915283203 -3.844882965087891 -0.840805053710938 216 160 125
-1.963712692260742 -1.745218157768250 -0.983829498291016 142 60 73
-2.112654685974121 1.098383545875549 -0.195880889892578 155 63 78
-2.299007415771484 2.283456325531006 0.497337341308594 176 94 83
-2.254524230957031 4.180354595184326 0.314876556396484 200 124 100
-1.819197654724121 -4.592263698577881 -1.336051940917969 228 184 143
-2.055051803588867 -2.101015806198120 -0.327842712402344 147 65 79
-1.930974006652832 -1.567036747932434 -0.894794464111328 142 61 74
-1.872722625732422 -0.903624594211578 -1.088520050048828 122 48 63
-1.892054557800293 -0.819125533103943 -0.977840423583984 123 49 64
-1.915033340454102 0.562305808067322 -0.930210113525391 150 63 79
-2.016027450561523 0.793825507164001 -0.437561035156250 136 46 62
-2.339171409606934 4.587920665740967 0.792758941650391 202 126 100
-1.696636199951172 -4.058792114257813 -1.570636749267578 223 167 130
-1.915002822875977 -3.741197109222412 -0.743171691894531 213 154 117
-1.764685630798340 -1.149283051490784 -1.261329650878906 129 53 66
-1.970741271972656 -0.082658410072327 -0.460815429687500 118 42 57
-2.258998870849609 2.297404766082764 0.615207672119141 177 91 85
-2.169485092163086 2.555295467376709 0.230388641357422 193 116 100
-2.258279800415039 3.022043228149414 0.673187255859375 195 129 103
-2.166969299316406 3.631473064422607 0.279998779296875 206 140 112
-2.195238113403320 4.296581268310547 0.332984924316406 196 119 93
-1.612108230590820 -4.703115463256836 -1.749870300292969 239 195 153
-1.886108398437500 -3.344355106353760 -0.816738128662109 214 142 117
-1.834979057312012 -2.583472490310669 -0.932624816894531 137 55 68
-1.809116363525391 -2.485976696014404 -1.007282257080078 134 52 65
-1.889994621276855 -0.592695832252502 -0.731719970703125 121 46 62
-1.854340553283691 -0.334653854370117 -0.779869079589844 132 56 72
-1.957852363586426 0.259012818336487 -0.311256408691406 145 61 77
-2.074987411499023 1.459383368492126 0.153446197509766 150 54 68
-2.176022529602051 1.903035521507263 0.491928100585938 146 52 60
-1.788926124572754 -1.579288482666016 -0.960262298583984 133 52 67
-1.732116699218750 -1.222340345382690 -1.220005035400391 126 50 63
-2.122417449951172 3.155973434448242 0.447338104248047 193 128 100
-1.689172744750977 -0.964174389839172 -1.219146728515625 125 48 64
-1.765293121337891 -0.485076665878296 -0.737003326416016 132 53 71
-1.815426826477051 0.406973719596863 -0.603343963623047 140 52 67
-2.004432678222656 3.648066520690918 0.146099090576172 199 132 104
-1.427543640136719 -4.204372406005859 -1.939022064208984 228 175 137
-1.863961219787598 -3.748425483703613 -0.420875549316406 219 158 122
-1.679405212402344 -2.057806730270386 -1.090465545654297 133 50 66
-2.090994834899902 2.983687877655029 0.731716156005859 195 128 102
-2.014955520629883 3.395522594451904 0.344306945800781 195 128 102
-1.922777175903320 3.866119384765625 -0.029304504394531 188 119 90
-1.993043899536133 4.536584377288818 0.336681365966797 202 126 100
-1.419075965881348 -4.314407825469971 -1.919097900390625 227 175 136
-1.758403778076172 -3.981378078460693 -0.594238281250000 223 165 128
-1.555659294128418 -2.521217823028564 -1.164554595947266 135 53 67
-1.646573066711426 -2.354711771011353 -0.908115386962891 139 56 72
-1.568280220031738 -1.520293712615967 -1.262107849121094 127 49 63
-1.571084976196289 -0.706631600856781 -1.310764312744141 131 53 72
-1.703437805175781 -0.268916368484497 -0.626903533935547 133 50 68
-1.832721710205078 0.216674089431763 -0.204303741455078 148 64 79
-2.034767150878906 3.238224983215332 0.579883575439453 190 124 97
-1.352415084838867 -4.667075634002686 -1.923099517822266 239 190 150
-1.630848884582520 -2.645409107208252 -0.924003601074219 140 57 71
-1.509053230285645 -1.204164981842041 -1.406188964843750 131 54 68
-1.932734489440918 1.603055119514465 0.337001800537109 140 38 52
-1.986877441406250 1.701561570167542 0.521141052246094 143 42 55
-1.845514297485352 2.982728958129883 0.017475128173828 196 129 102
-1.726311683654785 -3.682657718658447 -0.473018646240234 214 146 119
-1.614257812500000 -2.785890340805054 -0.902439117431641 138 55 67
-1.482320785522461 -0.914298534393311 -1.329994201660156 138 58 78
-1.662226676940918 0.036314845085144 -0.557819366455078 147 58 75
-1.844743728637695 3.507150173187256 0.298820495605469 188 118 90
-1.590114593505859 -4.020403385162354 -0.920948028564453 226 167 130
-1.551298141479492 -2.906104564666748 -0.902591705322266 145 64 77
-1.562824249267578 -0.355799674987793 -0.857574462890625 129 46 64
-1.775451660156250 0.987897992134094 0.082630157470703 154 53 69
-1.821331024169922 1.141192317008972 0.309352874755859 152 51 65
-1.888632774353027 1.450056195259094 0.382198333740234 156 55 69
-1.760876655578613 2.381838321685791 0.011268615722656 167 78 73
-1.771785736083984 3.904860496520996 0.082435607910156 186 113 86
-1.787327766418457 4.043738842010498 0.103042602539063 191 117 90
-1.899725914001465 4.414549350738525 0.641429901123047 200 124 100
-1.556462287902832 -3.427672863006592 -0.605262756347656 178 99 92
-1.486591339111328 -2.825664520263672 -0.981346130371094 140 59 74
-1.673274993896484 0.162459611892700 -0.230869293212891 147 55 70
-1.742298126220703 2.066710948944092 0.181915283203125 156 59 70
-1.395956039428711 -2.737042903900146 -0.971172332763672 135 54 69
-1.535501480102539 -2.447390317916870 -0.657852172851563 142 59 77
-1.339649200439453 -1.148967027664185 -1.532691955566406 144 61 77
-1.191709518432617 -4.370812892913818 -1.945762634277344 228 177 137
-1.350515365600586 -1.727045059204102 -1.182430267333984 130 52 68
-1.320114135742188 -1.468020677566528 -1.332344055175781 139 61 77
-1.399435997009277 -0.235325217247009 -0.907741546630859 143 56 73
-1.563591003417969 0.358356356620789 -0.393737792968750 155 61 77
-1.735298156738281 3.170754432678223 0.377735137939453 201 130 108
-1.711984634399414 3.329956531524658 0.401733398437500 196 124 99
-1.943126678466797 4.771373271942139 1.375659942626953 204 127 104
-1.377359390258789 -3.928967475891113 -0.960315704345703 218 157 121
-1.473330497741699 -3.799420356750488 -0.617767333984375 217 152 120
-1.415405273437500 -3.027933120727539 -0.797477722167969 142 61 69
-1.142086982727051 -4.378574848175049 -1.823711395263672 232 180 140
-1.214368820190430 -0.901708960533142 -1.403213500976563 128 47 65
-1.318513870239258 -0.121139764785767 -0.884273529052734 145 55 73
-1.411311149597168 0.430051445960999 -0.510509490966797 154 58 75
-1.591318130493164 2.731065750122070 0.230098724365234 190 104 94
-1.366270065307617 -3.433615684509277 -0.667106628417969 143 63 56
-1.335707664489746 -2.526593685150146 -0.709529876708984 146 61 80
-1.282781600952148 -1.947427511215210 -0.920291900634766 135 54 73
-1.185616493225098 -1.216457724571228 -1.434577941894531 129 47 62
-1.158891677856445 -1.123100042343140 -1.537166595458984 135 54 71
-1.541329383850098 0.851210474967957 0.207759857177734 159 62 79
-1.631972312927246 1.562771916389465 0.540351867675781 147 45 62
-1.604762077331543 1.818110585212708 0.389007568359375 137 36 50
-1.566964149475098 2.083906650543213 0.193592071533203 146 45 60
-1.689238548278809 4.547757625579834 0.843132019042969 194 120 95
-1.091875076293945 -4.538674354553223 -1.628292083740234 230 178 139
-1.214849472045898 -2.023549079895020 -1.079048156738281 127 44 64
-1.174234390258789 -1.545529246330261 -1.259059906005859 139 58 75
-1.242981910705566 -0.178868174552917 -0.946094512939453 149 58 76
-1.702463150024414 1.287660002708435 1.081802368164063 148 51 67
-1.488752365112305 3.071302890777588 0.169494628906250 203 130 108
-1.473676681518555 3.308008670806885 0.021892547607422 195 123 99
-1.503250122070313 3.902796268463135 0.234611511230469 191 119 95
-1.230933189392090 -2.323344707489014 -0.770187377929688 133 48 67
-1.514430046081543 1.748618721961975 0.407402038574219 137 34 51
-1.519326210021973 1.963299155235291 0.444988250732422 150 49 67
-1.427996635437012 2.991489887237549 0.020195007324219 199 122 103
-1.482600212097168 3.663664340972900 0.269412994384766 193 121 96
-1.514482498168945 4.078232288360596 0.353946685791016 195 123 99
-1.041733741760254 -4.097742080688477 -1.542854309082031 220 161 127
-1.152570724487305 -2.881595373153687 -0.920841217041016 143 56 73
-1.076372146606445 -1.453564763069153 -1.271221160888672 141 60 77
-1.022594451904297 -0.909201204776764 -1.544536590576172 137 54 70
-1.073480606079102 -0.613863110542297 -1.201740264892578 137 52 71
-1.439440727233887 0.844230771064758 0.121318817138672 147 53 69
-1.360239028930664 3.515368461608887 -0.090347290039063 194 122 98
-1.566586494445801 4.264404296875000 0.863334655761719 193 120 96
-0.941903114318848 -4.363458633422852 -1.737915039062500 232 178 140
-1.153341293334961 -3.286289691925049 -0.783012390136719 145 59 64
-1.181960105895996 0.062934041023254 -0.714710235595703 167 70 87
-1.450080871582031 1.056518435478210 0.508869171142578 147 53 69
-1.555646896362305 1.290362000465393 0.786087036132813 152 54 72
-1.092053413391113 -2.522516012191772 -0.881172180175781 141 54 71
-1.026395797729492 -1.802281260490417 -1.196666717529297 139 55 75
-0.967608451843262 -0.973254859447479 -1.574470520019531 132 49 65
-1.102890014648438 -0.284724235534668 -0.938396453857422 149 56 75
-1.307701110839844 1.944217085838318 -0.024070739746094 136 33 54
-0.792872428894043 -4.122686386108398 -2.089450836181641 226 167 133
-1.071349143981934 -3.580473423004150 -0.832424163818359 169 91 80
-1.029218673706055 -3.388769626617432 -1.019054412841797 144 60 60
-1.031247138977051 -3.283471107482910 -1.045017242431641 149 63 70
-0.984376907348633 -2.942043304443359 -1.200366973876953 141 52 69
-0.968494415283203 -0.669395625591278 -1.290935516357422 139 55 71
-1.293166160583496 1.813655734062195 0.195976257324219 143 40 59
-0.906242370605469 -2.053793430328369 -1.242553710937500 142 57 80
-0.899048805236816 -1.142275810241699 -1.449901580810547 130 49 64
-1.391723632812500 1.268189311027527 0.744804382324219 148 51 70
-1.304621696472168 1.495108723640442 0.353721618652344 151 54 73
-1.116403579711914 2.543434143066406 -0.417919158935547 159 61 66
-0.763172149658203 -4.432405471801758 -1.710754394531250 227 171 136
-0.922027587890625 -2.530000925064087 -1.015010833740234 137 50 67
-1.026294708251953 0.061844348907471 -0.559322357177734 159 60 78
-1.199260711669922 0.312951087951660 0.143463134765625 161 62 80
-1.165745735168457 0.631072163581848 -0.053588867187500 157 59 74
-1.334931373596191 1.090442776679993 0.781166076660156 152 58 76
-1.099270820617676 2.343272686004639 -0.256370544433594 162 57 71
-1.147712707519531 3.100846767425537 -0.037540435791016 199 121 99
-1.041987419128418 3.667640686035156 -0.416221618652344 196 124 100
-0.750145912170410 -4.331367969512939 -1.778091430664063 226 170 133
-0.949154853820801 -3.830138683319092 -0.807411193847656 220 150 124
-0.878356933593750 -3.037078380584717 -1.184772491455078 157 65 80
-1.144046783447266 3.234414100646973 -0.003868103027344 202 128 107
-1.075327873229980 4.107135295867920 -0.229618072509766 200 127 103
-0.853398323059082 -3.999214649200439 -1.062442779541016 216 156 122
-0.845892906188965 -3.322227478027344 -1.147109985351563 146 57 65
-0.862828254699707 -2.845648288726807 -0.976688385009766 152 59 77
-0.803680419921875 -1.627257823944092 -1.265048980712891 125 42 60
-1.143875122070313 1.750541806221008 0.206901550292969 146 43 62
-1.091883659362793 3.412539482116699 0.017673492431641 199 127 103
-1.146988868713379 4.462906360626221 0.249633789062500 198 123 100
-0.657036781311035 -4.104663848876953 -1.777061462402344 224 164 130
-0.812381744384766 -3.547197341918945 -1.033756256103516 141 60 54
-0.825672149658203 -2.884356737136841 -1.025474548339844 158 65 83
-0.749411582946777 -1.506245732307434 -1.268062591552734 125 44 59
-0.825203895568848 -0.523480415344238 -0.988956451416016 145 54 71
-0.825855255126953 -0.091790795326233 -0.934551239013672 157 53 73
-1.133480072021484 0.398673892021179 0.406887054443359 150 51 69
-1.264283180236816 1.429906010627747 0.969612121582031 148 52 66
-0.882081985473633 3.506278038024902 -0.766246795654297 199 129 103
-0.734800338745117 -1.092323064804077 -1.195301055908203 140 57 73
-1.271811485290527 1.024727463722229 1.158432006835938 151 54 71
-1.183825492858887 1.913864493370056 0.762271881103516 139 36 57
-0.564510345458984 3.719523429870605 -1.795532226562500 199 127 103
-0.780351638793945 4.013451576232910 -0.900878906250000 199 124 101
-0.741297721862793 -3.934854984283447 -1.041469573974609 212 151 118
-0.686497688293457 -2.067302942276001 -1.268245697021484 149 61 83
-0.679687500000000 -1.667632222175598 -1.270381927490234 125 42 60
-0.663459777832031 -1.232151746749878 -1.369617462158203 146 63 81
-0.763666152954102 -0.196977972984314 -0.853485107421875 164 63 81
-1.014070510864258 2.763265609741211 0.214317321777344 162 66 68
-1.005708694458008 3.164568901062012 0.285701751708984 207 126 109
-0.715704917907715 -3.588826179504395 -1.006618499755859 163 84 74
-0.643641471862793 -0.883516848087311 -1.215988159179688 151 64 81
-0.746088981628418 -0.291134238243103 -0.852790832519531 160 61 79
-1.027840614318848 0.239909887313843 0.448299407958984 154 53 71
-1.043334007263184 2.422241687774658 0.449047088623047 156 54 69
-0.619833946228027 -3.001196861267090 -1.260227203369141 170 73 90
-1.153612136840820 1.032641768455505 1.296833038330078 149 52 69
-1.158814430236816 1.308797240257263 1.211975097656250 147 53 69
-1.039755821228027 1.861193537712097 0.738559722900391 145 46 66
-0.852909088134766 2.179269313812256 -0.024280548095703 135 34 52
-0.620679855346680 -3.855759143829346 -1.018222808837891 217 149 123
-0.644964218139648 -2.449299335479736 -0.839179992675781 144 55 75
-1.100914955139160 1.444448590278625 1.221000671386719 144 50 66
-0.918108940124512 2.559250831604004 0.352176666259766 144 44 56
-0.882854461669922 2.887729167938232 0.190269470214844 164 70 70
-0.714745521545410 4.215627670288086 -0.531326293945313 205 130 107
-0.422436714172363 -4.306396007537842 -1.745231628417969 225 169 134
-0.552515029907227 -3.260233163833618 -1.087844848632813 149 54 65
-0.589567184448242 -2.633898735046387 -0.914829254150391 140 46 64
-0.521772384643555 -1.612068891525269 -1.209659576416016 130 49 66
-1.088089942932129 1.128285765647888 1.422176361083984 154 60 76
-0.808448791503906 3.239017486572266 0.176189422607422 198 117 102
-0.419530868530273 -4.609640121459961 -1.605613708496094 226 172 134
-0.538323402404785 -3.592963218688965 -1.078575134277344 140 61 53
-0.811048507690430 3.414340972900391 0.113445281982422 204 129 108
-0.485369682312012 3.583922386169434 -1.094547271728516 202 130 106
-0.456199645996094 -3.263183355331421 -1.198719024658203 151 56 67
-0.465682983398438 -2.014508724212646 -1.151184082031250 131 43 65
-0.461145401000977 -0.881484091281891 -1.268962860107422 158 66 83
-0.523742675781250 -0.436651587486267 -0.841522216796875 164 65 85
-0.516680717468262 -0.306896924972534 -0.928985595703125 156 55 73
-0.530500411987305 -0.105479598045349 -0.762462615966797 166 62 81
-0.672019004821777 2.257010936737061 -0.069255828857422 134 35 53
-0.564896583557129 -2.918487548828125 -0.427406311035156 158 61 78
-0.495604515075684 -2.669229507446289 -0.869365692138672 151 55 75
-0.466151237487793 -2.317856311798096 -0.897258758544922 141 53 77
-0.947158813476563 0.339771151542664 1.206501007080078 162 61 79
-0.853446006774902 0.624321579933167 0.924346923828125 153 54 72
-0.906303405761719 0.818400263786316 1.086048126220703 147 50 67
-0.787543296813965 1.659608960151672 0.546676635742188 147 53 71
-0.260911941528320 -4.428519725799561 -1.545669555664063 223 171 134
-0.351177215576172 -1.690526843070984 -1.160503387451172 123 42 61
-0.383561134338379 -1.428664207458496 -1.098571777343750 146 68 82
-0.513900756835938 -0.115837931632996 -0.571838378906250 157 54 73
-0.675850868225098 2.884941577911377 0.309280395507813 152 56 60
-0.285674095153809 3.728583335876465 -1.629417419433594 197 125 100
-0.838806152343750 1.296050906181335 1.160461425781250 138 45 61
-0.573983192443848 3.289181709289551 0.045211791992188 194 112 100
-0.262053489685059 -4.617753505706787 -1.300777435302734 228 172 135
-0.399055480957031 -2.380496978759766 -0.650779724121094 140 52 74
-0.325873374938965 -1.138367891311646 -1.095432281494141 153 68 83
-0.414264678955078 -0.495568871498108 -0.705059051513672 152 53 73
-0.717492103576660 0.431059718132019 0.905754089355469 153 54 72
-0.121617317199707 3.615351676940918 -1.881145477294922 205 133 109
-0.496282577514648 4.421297073364258 -0.110786437988281 205 131 106
-0.271883010864258 -3.850917816162109 -1.054786682128906 215 147 122
-0.298359870910645 -3.578109264373779 -1.018016815185547 143 61 54
-0.293413162231445 -3.101726055145264 -0.938102722167969 155 61 76
-0.346889495849609 -2.520295143127441 -0.696018218994141 149 60 80
-0.299484252929688 -1.767862796783447 -0.947532653808594 131 50 70
-0.276537895202637 -0.969184815883636 -1.007377624511719 164 72 89
-0.352167129516602 -0.691491007804871 -0.722423553466797 160 62 81
-0.669869422912598 0.848708748817444 0.869773864746094 154 58 75
-0.661653518676758 1.966474890708923 0.780948638916016 141 48 66
-0.622614860534668 2.415235996246338 0.626457214355469 141 41 57
-0.228984832763672 -4.050620555877686 -1.158447265625000 210 150 116
-0.262291908264160 -2.066615343093872 -0.904491424560547 134 49 72
-0.605918884277344 2.774408817291260 0.818443298339844 137 41 52
-0.128436088562012 -4.261795520782471 -1.391197204589844 221 165 128
-0.303662300109863 -2.247330904006958 -0.490566253662109 131 47 70
-0.594568252563477 0.335140347480774 0.888755798339844 162 65 84
-0.531024932861328 1.411662459373474 0.618026733398438 131 38 56
-0.582911491394043 1.920384764671326 0.725215911865234 141 50 67
-0.547654151916504 2.344416618347168 0.544536590576172 138 41 55
-0.334519386291504 4.114965438842773 -0.350399017333984 200 129 103
-0.062653541564941 -4.634274482727051 -1.525993347167969 229 175 139
-0.098157882690430 -3.675786972045898 -1.348468780517578 158 80 69
-0.270211219787598 -0.681335449218750 -0.471771240234375 162 63 81
-0.278488159179688 -0.577786445617676 -0.423965454101563 157 58 76
-0.309779167175293 -0.100545644760132 -0.326759338378906 152 53 74
-0.434708595275879 2.044836044311523 0.319053649902344 137 43 61
0.002779960632324 -4.473096370697021 -1.569610595703125 221 167 129
-0.492827415466309 0.669115662574768 0.758510589599609 140 48 63
-0.478088378906250 1.206066012382507 0.646060943603516 144 51 69
-0.112750053405762 -1.405730485916138 -0.848014831542969 154 69 88
-0.242323875427246 -0.332019925117493 -0.320693969726563 156 57 77
-0.260901451110840 -0.292241692543030 -0.243228912353516 156 57 77
-0.187911033630371 2.142074584960938 -0.485176086425781 133 39 55
-0.525572776794434 2.744952201843262 1.101448059082031 147 52 63
-0.412631988525391 3.213414669036865 0.625930786132813 187 97 96
-0.337056159973145 3.612304687500000 0.234542846679688 217 142 121
-0.131293296813965 4.016284942626953 -0.779804229736328 203 131 106
0.022734642028809 -4.218473434448242 -1.329524993896484 215 158 121
0.004572868347168 -3.657630443572998 -1.186962127685547 167 92 79
-0.065133094787598 -2.606330394744873 -0.790473937988281 146 58 80
-0.348353385925293 0.566667675971985 0.571197509765625 152 60 77
-0.263255119323730 1.626385092735291 0.207317352294922 135 44 61
-0.249814033508301 1.831475853919983 0.067230224609375 140 48 65
0.097519874572754 -4.438320159912109 -1.509841918945313 223 169 131
0.050566673278809 -3.832241535186768 -1.334884643554688 208 139 117
-0.012181282043457 -3.181210994720459 -0.971630096435547 160 66 82
-0.013387680053711 -2.693443775177002 -0.898063659667969 139 52 71
-0.028144836425781 -2.120741128921509 -0.809955596923828 140 56 79
-0.004028320312500 -1.613813996315002 -0.864692687988281 136 51 72
-0.024250984191895 -1.379562258720398 -0.934577941894531 152 65 84
-0.027612686157227 -1.140237331390381 -0.984981536865234 154 62 80
-0.309899330139160 0.872149825096130 0.405616760253906 133 42 59
-0.230213165283203 2.862866878509521 0.189449310302734 145 50 58
0.076656341552734 -3.391914367675781 -1.101432800292969 151 60 67
-0.018086433410645 -1.570450186729431 -0.802906036376953 139 53 72
-0.250557899475098 1.067452073097229 0.290641784667969 138 47 65
-0.177183151245117 1.754488110542297 0.082973480224609 146 55 73
-0.104403495788574 2.273202896118164 -0.258537292480469 133 39 56
-0.192388534545898 3.190451622009277 0.043659210205078 198 109 105
-0.098147392272949 4.349257469177246 -0.152259826660156 210 136 111
0.103345870971680 -2.513171911239624 -1.095760345458984 135 51 71
-0.077986717224121 -0.483404517173767 -0.188217163085938 153 56 75
-0.132559776306152 -0.063328981399536 0.035243988037109 145 53 71
-0.217263221740723 1.514649271965027 0.401618957519531 149 59 77
0.021030426025391 3.642470359802246 -0.671829223632813 211 141 116
0.168913841247559 3.730863571166992 -1.479759216308594 201 134 108
-0.047637939453125 4.088191509246826 -0.356590270996094 201 131 106
0.127653121948242 -1.789970517158508 -0.992530822753906 122 37 60
0.105494499206543 -1.341900944709778 -0.934600830078125 160 68 86
0.102468490600586 -1.112010478973389 -0.979217529296875 160 67 85
0.083851814270020 -0.957958698272705 -0.846630096435547 158 64 82
-0.185986518859863 0.398745656013489 0.545490264892578 154 66 83
-0.033742904663086 4.459106922149658 -0.322483062744141 199 124 99
0.257742881774902 -4.554362773895264 -1.554962158203125 229 173 136
0.180983543395996 -3.633580684661865 -1.069622039794922 145 67 57
0.065864562988281 -2.430768013000488 -0.546215057373047 133 52 71
0.145447731018066 -2.199856758117676 -0.983562469482422 137 55 77
0.058002471923828 -0.809794008731842 -0.486557006835938 166 72 90
-0.113313674926758 0.166343688964844 0.412075042724609 142 54 72
-0.104551315307617 0.528743386268616 0.373416900634766 150 63 79
-0.088589668273926 1.147989630699158 0.214855194091797 147 60 77
-0.047880172729492 2.409441947937012 0.065959930419922 136 39 59
-0.128615379333496 2.978802680969238 0.498657226562500 147 52 60
-0.014000892639160 3.736090660095215 -0.210826873779297 210 140 115
0.147255897521973 -1.500054359436035 -0.742050170898438 146 55 76
-0.086153984069824 1.456780552864075 0.526721954345703 144 56 74
-0.054769515991211 1.646028637886047 0.350822448730469 143 52 70
0.218053817749023 -1.384827375411987 -0.953834533691406 154 62 83
0.063563346862793 -0.445176124572754 0.002952575683594 158 65 84
-0.005114555358887 0.805748581886292 0.226867675781250 137 50 66
-0.001002311706543 1.292993187904358 0.233657836914063 144 57 75
0.041329383850098 2.127037525177002 -0.066719055175781 129 35 55
0.317578315734863 -3.631448268890381 -1.211387634277344 153 74 65
0.226634979248047 -3.118000507354736 -0.780147552490234 164 66 85
0.218259811401367 -2.826567173004150 -0.753028869628906 146 55 73
0.267852783203125 -2.069785833358765 -0.883750915527344 141 57 80
0.157975196838379 -0.614017486572266 -0.293483734130859 156 61 81
0.058413505554199 0.050129413604736 0.167072296142578 149 64 83
-0.036416053771973 1.617805600166321 0.543003082275391 147 57 75
-0.015645980834961 2.774609088897705 0.492256164550781 137 40 57
-0.013278007507324 3.022077560424805 0.545341491699219 160 68 73
-0.004126548767090 3.294037818908691 0.397861480712891 191 106 101
0.027506828308105 3.468650817871094 0.262073516845703 211 131 119
0.170437812805176 3.868474483489990 -0.384620666503906 204 136 113
0.155044555664063 4.503197193145752 -0.370601654052734 203 127 101
0.432317733764648 -4.618351459503174 -1.664722442626953 226 171 132
0.443669319152832 -4.394725799560547 -1.597114562988281 220 166 128
0.318254470825195 -3.362563133239746 -0.897331237792969 155 60 70
0.348004341125488 -1.317107439041138 -1.071350097656250 154 61 79
0.033333778381348 0.748066544532776 0.490242004394531 132 48 63
0.051938056945801 1.110082030296326 0.332611083984375 147 63 80
0.026844978332520 2.634960651397705 0.504745483398438 143 45 66
0.194149971008301 -0.121500134468079 -0.006629943847656 148 62 81
0.060492515563965 0.541972994804382 0.540203094482422 135 52 68
-0.006952285766602 1.520805478096008 0.775459289550781 133 46 63
0.126194000244141 1.930322051048279 0.262577056884766 147 54 73
0.125539779663086 3.788946628570557 0.175975799560547 209 139 114
0.207265853881836 4.277676582336426 -0.206378936767578 201 129 105
0.424050331115723 -3.838732242584229 -0.969161987304688 214 143 122
0.403723716735840 -3.644665002822876 -0.945751190185547 144 66 57
0.345227241516113 -3.372432231903076 -0.814777374267578 160 65 76
0.320095062255859 -2.673339605331421 -0.585025787353516 142 55 72
0.295443534851074 -2.475960493087769 -0.438262939453125 138 57 76
0.373723030090332 -1.039481401443481 -0.841041564941406 163 69 85
0.166090965270996 1.290716767311096 0.288536071777344 139 54 70
0.180124282836914 3.453683853149414 0.326179504394531 208 126 114
0.499590873718262 -4.152922630310059 -1.287258148193359 218 160 122
0.350367546081543 -3.126095533370972 -0.587249755859375 155 54 72
0.414339065551758 -1.719626188278198 -0.764343261718750 134 47 67
0.145249366760254 0.370874524116516 0.478477478027344 137 55 73
0.176092147827148 0.659490227699280 0.421035766601563 130 49 62
0.196707725524902 0.943967700004578 0.310222625732422 134 51 65
0.195861816406250 3.493782997131348 0.326297760009766 210 131 116
0.325528144836426 3.961802005767822 -0.331684112548828 205 138 112
0.431479454040527 -1.767940402030945 -0.763881683349609 141 53 75
0.443623542785645 -1.322785139083862 -0.833061218261719 157 63 79
0.248475074768066 1.259827971458435 0.165409088134766 137 51 67
0.211166381835938 1.533438086509705 0.395664215087891 140 50 68
0.196152687072754 2.733807563781738 0.574008941650391 137 38 56
0.508235931396484 -3.819234848022461 -0.848316192626953 209 138 118
0.413084983825684 -2.404466629028320 -0.322345733642578 132 53 73
0.445821762084961 -0.796756565570831 -0.525722503662109 160 66 82
0.282906532287598 2.341404914855957 0.250099182128906 131 34 54
0.295649528503418 3.483284950256348 0.201419830322266 206 127 114
0.351976394653320 4.083937168121338 0.036224365234375 202 134 108
0.698120117187500 -4.425028800964355 -1.629211425781250 222 168 129
0.546126365661621 -3.598548412322998 -0.825325012207031 150 69 61
0.556921958923340 -1.104595899581909 -1.016578674316406 171 77 93
0.436111450195313 -0.529745936393738 -0.304985046386719 165 76 94
0.346567153930664 0.882057785987854 0.189720153808594 132 50 64
0.360353469848633 0.783712029457092 0.305694580078125 142 63 76
0.399188995361328 1.049325346946716 0.222946166992188 142 58 73
0.338090896606445 1.323789238929749 0.245235443115234 142 58 74
0.375350952148438 1.596709847450256 0.234062194824219 151 59 77
0.356194496154785 1.913362145423889 0.411056518554688 139 48 66
0.335670471191406 3.746223449707031 0.556278228759766 226 151 131
0.390599250793457 4.448458194732666 0.185794830322266 200 128 100
0.571963310241699 -3.036805629730225 -0.686744689941406 162 58 77
0.617697715759277 -1.256843209266663 -0.874080657958984 164 70 86
0.351186752319336 3.839647769927979 0.526538848876953 216 144 122
0.326669692993164 4.407983303070068 0.799915313720703 205 134 106
0.799783706665039 -4.391025066375732 -1.600086212158203 218 163 123
0.645612716674805 -3.385649204254150 -0.708545684814453 170 73 79
0.633477210998535 -2.569528579711914 -0.652988433837891 134 49 66
0.622854232788086 -2.181300878524780 -0.810192108154297 135 56 75
0.595870971679688 -0.851207852363586 -0.449813842773438 170 79 96
0.447546958923340 1.585874199867249 0.441997528076172 147 56 74
0.344791412353516 2.203498363494873 0.787467956542969 138 45 64
0.387100219726563 2.506887912750244 0.655342102050781 138 41 61
0.410080909729004 2.934102058410645 0.573566436767578 139 43 57
0.396776199340820 3.254865169525146 0.475067138671875 196 104 107
0.602184295654297 -0.587103724479675 -0.229579925537109 157 68 86
0.527278900146484 -0.386213421821594 0.122970581054688 162 78 94
0.422143936157227 4.244173049926758 0.636787414550781 200 130 105
0.448805809020996 4.436916828155518 0.514869689941406 204 133 105
0.761771202087402 -2.907437562942505 -0.921852111816406 167 65 84
0.726062774658203 -1.424830436706543 -0.826568603515625 171 75 91
0.498782157897949 0.236381769180298 0.470417022705078 149 71 85
0.549301147460938 1.268377423286438 0.300655364990234 148 64 80
0.446739196777344 1.846777319908142 0.746856689453125 144 53 71
0.815454006195068 -4.361520767211914 -1.057205200195313 221 163 123
0.749756813049316 -3.225649118423462 -0.565128326416016 179 72 86
0.738924026489258 -1.838534951210022 -0.670227050781250 152 63 81
0.544194221496582 0.765752911567688 0.504543304443359 151 77 88
0.527492523193359 1.509674429893494 0.532398223876953 146 57 75
0.423178672790527 2.375650882720947 1.077014923095703 139 44 64
0.508221626281738 3.280035018920898 0.645801544189453 180 89 90
0.511395454406738 3.560689926147461 0.581493377685547 209 126 116
0.410865783691406 3.979869842529297 1.177089691162109 211 139 120
0.985265731811523 -4.505496978759766 -1.608356475830078 226 171 130
0.838940620422363 -4.135831832885742 -0.921020507812500 221 160 121
0.768916130065918 -1.717182397842407 -0.561374664306641 153 61 78
0.756974220275879 -1.308223962783813 -0.591705322265625 159 65 79
1.003202915191650 -4.581227779388428 -1.580615997314453 229 174 133
0.604618072509766 1.893764615058899 0.630805969238281 151 60 78
0.567229270935059 3.806630611419678 0.953395843505859 221 145 127
0.912641048431396 -3.669651031494141 -0.910717010498047 206 128 109
0.811539649963379 -0.974953591823578 -0.286930084228516 171 79 95
0.671918869018555 0.550685763359070 0.509872436523438 138 66 77
1.034756660461426 -4.742058753967285 -1.121212005615234 227 173 133
0.970719814300537 -2.755022525787354 -0.834526062011719 154 55 76
0.882356166839600 -2.382604837417603 -0.296466827392578 138 53 74
0.938183307647705 -2.084890365600586 -0.699111938476563 136 51 70
0.730628013610840 2.753530979156494 0.470748901367188 144 45 63
0.647435188293457 3.270596504211426 0.829162597656250 187 92 96
0.970473289489746 -4.370260238647461 -0.711498260498047 219 161 122
0.834221363067627 -0.757168054580688 -0.065021514892578 166 78 94
0.798035621643066 0.028913497924805 0.163703918457031 134 56 70
1.077960491180420 -4.213007450103760 -0.993480682373047 216 156 119
1.022878170013428 -3.978771209716797 -0.758308410644531 216 153 117
0.985250949859619 -3.153996706008911 -0.511295318603516 164 53 68
0.972515583038330 -1.732818961143494 -0.568275451660156 158 66 81
0.795475959777832 0.580171704292297 0.479293823242188 134 58 71
0.768117904663086 0.915078043937683 0.567604064941406 131 53 66
0.754386901855469 1.136421561241150 0.681621551513672 146 63 78
0.764320373535156 1.575862765312195 0.666110992431641 145 54 71
0.735356330871582 1.968742012977600 0.839286804199219 141 50 67
0.669897079467773 2.652761459350586 1.027275085449219 141 44 63
0.789581298828125 4.223217487335205 0.504684448242188 206 136 110
1.049180507659912 -4.682981014251709 -0.677238464355469 230 177 137
0.989550113677979 -1.391791939735413 -0.347312927246094 178 80 93
0.760716438293457 3.152091503143311 0.935997009277344 163 65 73
0.726490974426270 3.972640991210938 1.108177185058594 206 135 113
1.014604568481445 -3.375611782073975 -0.452262878417969 173 70 74
1.023133754730225 -1.048287391662598 -0.373840332031250 164 72 87
0.972819328308105 -0.797872066497803 -0.045623779296875 157 69 85
0.723541259765625 2.438313961029053 1.444160461425781 131 37 55
0.803882598876953 3.442467689514160 1.071353912353516 199 108 105
0.805814743041992 3.564912796020508 0.895984649658203 213 127 118
1.132608890533447 -4.665372848510742 -0.665515899658203 230 177 137
1.081825256347656 -3.232580184936523 -0.454055786132813 169 59 70
1.141993045806885 -2.832557439804077 -0.689163208007813 154 51 72
1.157559871673584 -2.215527296066284 -0.749118804931641 152 65 82
0.851636409759521 2.837152481079102 0.938484191894531 141 43 61
1.154985904693604 4.449971199035645 -0.749931335449219 206 132 105
1.152554988861084 -3.949459552764893 -0.622966766357422 214 149 114
0.982644081115723 0.699794411659241 0.441318511962891 143 65 78
0.886262893676758 2.076484680175781 1.062019348144531 149 58 75
1.141282081604004 -4.220494270324707 -0.365570068359375 222 162 125
1.146450042724609 -2.680452823638916 -0.349815368652344 151 53 73
1.189453125000000 -1.971017003059387 -0.589794158935547 152 60 76
1.090246200561523 -0.093427658081055 0.051242828369141 146 62 77
0.983996868133545 1.472261309623718 0.696239471435547 141 54 71
0.914463520050049 4.352427005767822 1.210590362548828 208 138 112
0.894493579864502 4.540909290313721 1.333946228027344 203 132 104
