ply
format ascii 1.0
element vertex 733
property double x
property double y
property double z
property uchar red
property uchar green
property uchar blue
end_header
0.113335967063904 0.106673106551170 0.119014739990234 86 11 16
0.121743500232697 0.284943819046021 0.168739318847656 88 11 17
0.116615384817123 1.070569515228271 0.443321228027344 136 62 53
0.114197462797165 1.153914690017700 0.451203346252441 157 87 75
0.121391594409943 1.356105446815491 0.149077415466309 153 102 75
0.114994525909424 1.460422158241272 0.131131172180176 147 94 69
0.123180538415909 -1.752136111259460 -0.220623016357422 182 133 92
0.138499975204468 -1.084580659866333 -0.484946250915527 149 99 64
0.142325818538666 -1.050187230110168 -0.458847999572754 149 99 66
0.126358777284622 -0.067691579461098 0.071055412292480 94 15 20
0.129516541957855 0.154339626431465 0.139284133911133 85 10 14
0.126095652580261 0.836391448974609 0.371761322021484 91 11 14
0.117460668087006 1.597740530967712 0.141037940979004 142 82 56
0.149968266487122 -1.418797016143799 -0.374639511108398 168 116 77
0.156949609518051 -1.186719417572021 -0.384230613708496 157 107 72
0.153430610895157 -0.977888822555542 -0.394727706909180 139 84 53
0.148016870021820 -0.519837200641632 -0.016975402832031 98 11 17
0.129907459020615 1.071610212326050 0.434752464294434 133 59 50
0.163460329174995 -1.332345247268677 -0.406761169433594 165 111 75
0.163926661014557 -1.262907385826111 -0.401519775390625 161 108 71
0.153030902147293 -0.907917022705078 -0.344887733459473 150 84 60
0.159536600112915 -0.793071329593658 -0.285617828369141 121 37 27
0.166028678417206 -0.659080147743225 -0.135477066040039 104 13 18
0.155820012092590 -0.458980143070221 -0.000789642333984 105 16 22
0.155605316162109 -0.396787106990814 0.027374267578125 123 32 39
0.143488258123398 -0.294862389564514 0.025637626647949 111 26 31
0.155882656574249 -0.214241892099380 0.033985137939453 94 12 16
0.149896532297134 -0.024641051888466 0.101677894592285 105 26 31
0.157079488039017 0.483822107315063 0.184688568115234 81 4 10
0.142964810132980 0.991209268569946 0.422767639160156 118 35 33
0.153530687093735 1.146096944808960 0.444423675537109 153 85 72
0.175999119877815 -1.683815121650696 -0.288638114929199 177 126 83
0.178281441330910 -1.580716729164124 -0.276731491088867 177 125 84
0.175681605935097 -1.452011942863464 -0.375320434570313 175 123 84
0.171182900667191 -0.574679911136627 -0.093864440917969 96 7 13
0.185613647103310 -1.216778874397278 -0.406158447265625 164 112 75
0.195523768663406 -1.138674139976501 -0.420543670654297 159 106 72
0.190264046192169 -0.838312149047852 -0.299169540405273 104 33 13
0.182381480932236 -0.308778345584869 0.035206794738770 107 20 26
0.176826298236847 0.197578027844429 0.132944107055664 110 38 41
0.177890196442604 0.620640575885773 0.273196220397949 94 17 23
0.173860251903534 1.135354876518250 0.429198265075684 158 90 77
0.181020095944405 1.309654593467712 0.133012771606445 156 100 75
0.180873408913612 1.327156543731689 0.114042282104492 151 97 71
0.202587619423866 -1.413508772850037 -0.334075927734375 169 117 78
0.190895989537239 -0.230992287397385 0.008105278015137 109 24 29
0.187551185488701 0.351096034049988 0.159375190734863 111 34 40
0.184557750821114 1.402397871017456 0.107211112976074 151 101 74
0.183901101350784 1.482164859771729 0.126226425170898 146 92 66
0.207273393869400 -1.307220578193665 -0.391672134399414 162 108 71
0.219766378402710 -1.084290981292725 -0.477602958679199 155 105 70
0.214062139391899 -0.972951054573059 -0.401033401489258 142 89 58
0.211329966783524 -0.623909950256348 -0.121962547302246 100 9 14
0.202788114547729 0.944343686103821 0.410330772399902 116 30 33
0.199899449944496 1.585453867912292 0.181757926940918 144 86 59
0.221940189599991 -1.682512402534485 -0.303476333618164 179 128 85
0.222973868250847 -0.732468664646149 -0.257526397705078 129 42 35
0.215650916099548 -0.492560744285583 0.002407073974609 115 25 34
0.212614685297012 0.775683641433716 0.386242866516113 103 22 29
0.209523633122444 1.086327314376831 0.395322799682617 152 79 70
0.220350876450539 1.224793791770935 0.329895973205566 157 99 79
0.217639058828354 1.331000328063965 0.114171028137207 154 101 75
0.239185169339180 -0.828059911727905 -0.312036514282227 136 65 45
0.226856455206871 -0.333342611789703 0.061964035034180 114 23 28
0.229421600699425 -0.162737205624580 0.050471305847168 97 16 22
0.232242807745934 0.031878829002380 0.077610969543457 84 9 13
0.220677688717842 0.860305190086365 0.406263351440430 111 24 30
0.228745207190514 1.035191416740417 0.420563697814941 139 62 56
0.224539741873741 1.607981920242310 0.172372817993164 142 82 54
0.216345429420471 1.656382918357849 0.221385955810547 142 82 54
0.245557487010956 -1.717756986618042 -0.296741485595703 183 132 89
0.244786202907562 -1.173286437988281 -0.319843292236328 161 108 74
0.239738166332245 -0.103344470262527 0.083355903625488 93 17 21
0.235142424702644 -0.049309857189655 0.094038009643555 94 18 20
0.247500807046890 0.294699728488922 0.149537086486816 101 26 30
0.239860132336617 0.407706439495087 0.185929298400879 89 12 18
0.235432147979736 0.576676607131958 0.291340827941895 102 22 31
0.256731569766998 -1.503704667091370 -0.302521705627441 158 105 63
0.253054141998291 -1.347299695014954 -0.314195632934570 166 112 73
0.257081896066666 -0.779007136821747 -0.316657066345215 121 44 28
0.254361748695374 -0.456146001815796 0.012508392333984 109 18 25
0.248571947216988 -0.435759603977203 0.018280029296875 120 27 35
0.247282788157463 0.637041926383972 0.309135437011719 102 21 28
0.242903664708138 0.795094132423401 0.399181365966797 95 10 17
0.247984766960144 1.088658809661865 0.400568008422852 167 94 85
0.246967643499374 1.548562049865723 0.115189552307129 144 87 58
0.273208290338516 -1.692554831504822 -0.332476615905762 179 128 85
0.275433063507080 -0.989257991313934 -0.443116188049316 145 97 61
0.258157074451447 -0.392351716756821 0.028421401977539 117 24 32
0.258823633193970 1.352730035781860 0.104040145874023 145 94 67
0.280431985855103 -1.433451175689697 -0.308019638061523 159 106 66
0.271098673343658 -1.174841761589050 -0.291428565979004 158 105 71
0.281501114368439 -1.125069499015808 -0.314288139343262 147 94 60
0.283226758241653 -0.270700573921204 0.009051322937012 110 21 25
0.280042767524719 0.267246067523956 0.137992858886719 100 28 31
0.280135780572891 0.356111943721771 0.142351150512695 102 26 30
0.271302759647369 1.019640326499939 0.416568756103516 135 55 51
0.275898158550262 1.455218315124512 0.046639442443848 143 87 60
0.301198571920395 -0.959860801696777 -0.415637969970703 145 92 60
0.297003209590912 0.162376597523689 0.116375923156738 96 26 28
0.285639226436615 0.518543660640717 0.209307670593262 99 20 26
0.282171785831451 0.858997344970703 0.404428482055664 112 23 29
0.289333641529083 1.262274742126465 0.110514640808105 143 87 64
0.281060069799423 1.364154577255249 0.100823402404785 151 100 73
0.282860398292542 1.547098278999329 0.134229660034180 144 87 58
0.302621901035309 -0.451064109802246 -0.085240364074707 118 23 31
0.305901974439621 0.449706673622131 0.202276229858398 92 11 18
0.301373898983002 0.604856431484222 0.303065299987793 96 14 20
0.297962278127670 0.738408327102661 0.357058525085449 113 28 35
0.298940062522888 1.081076741218567 0.382327079772949 162 90 80
0.304378420114517 1.239467144012451 0.171082496643066 148 93 69
0.317933976650238 -0.805633485317230 -0.324450492858887 154 88 66
0.322952628135681 -0.743795335292816 -0.295827865600586 111 38 23
0.316767394542694 -0.623259425163269 -0.191931724548340 116 26 25
0.324060916900635 -0.572261929512024 -0.171690940856934 107 17 17
0.318303316831589 -0.053363606333733 0.060195922851563 92 13 16
0.316752195358276 0.679442167282104 0.335406303405762 102 17 24
0.303189635276794 1.682970523834229 0.216197013854980 145 85 59
0.326235622167587 -1.030094981193542 -0.447807312011719 152 103 70
0.334155112504959 -0.347704887390137 0.005563735961914 112 20 23
0.331435650587082 -0.250735044479370 0.005132675170898 97 8 10
0.322856009006500 0.404828667640686 0.187378883361816 99 20 25
0.324921548366547 0.530412137508392 0.238262176513672 96 14 20
0.321173310279846 0.654328167438507 0.334298133850098 94 9 16
0.321777790784836 0.866877794265747 0.396442413330078 122 31 36
0.335146903991699 -1.687832593917847 -0.368747711181641 178 127 84
0.343882769346237 -1.369528651237488 -0.366496086120605 170 117 77
0.338987261056900 -1.210256457328796 -0.347671508789063 162 108 74
0.348057955503464 -0.692319393157959 -0.275377273559570 121 43 31
0.337109684944153 -0.244508698582649 -0.001106262207031 98 9 11
0.332288652658463 0.745084881782532 0.368331909179688 116 29 37
0.335716009140015 1.526818156242371 0.122037887573242 147 90 61
0.352939188480377 -1.458155035972595 -0.318138122558594 170 117 77
0.354311794042587 -1.307746052742004 -0.392261505126953 165 111 73
0.355854988098145 -0.469487011432648 -0.169903755187988 106 11 17
0.348358690738678 0.582942724227905 0.302147865295410 105 20 25
0.349195003509521 0.968285918235779 0.406319618225098 119 33 32
0.347894400358200 1.569052100181580 0.148297309875488 142 82 54
0.366152763366699 -1.366032481193542 -0.362145423889160 165 112 72
0.369751721620560 -1.209140658378601 -0.364861488342285 159 105 71
0.367802232503891 -0.924884796142578 -0.396197319030762 148 95 64
0.364957660436630 -0.111633032560349 0.047657966613770 96 11 14
0.357244014739990 -0.049738928675652 0.068587303161621 94 12 14
0.366354584693909 0.277149617671967 0.148524284362793 95 23 26
0.359311848878860 0.675419867038727 0.329241752624512 99 12 18
0.362642765045166 1.378111720085144 0.055806159973145 149 97 69
0.361850053071976 1.471293449401855 0.085803985595703 142 85 58
0.370935767889023 -1.601468443870544 -0.386569023132324 174 122 82
0.381009727716446 -1.147680640220642 -0.331863403320313 163 109 75
0.374464690685272 -1.028997659683228 -0.388795852661133 152 102 69
0.379834055900574 -0.882585406303406 -0.380017280578613 152 97 67
0.374685138463974 -0.695172846317291 -0.276290893554688 115 42 25
0.378270745277405 -0.266915917396545 0.030248641967773 109 19 19
0.367361396551132 0.969856500625610 0.408131599426270 114 31 28
0.374698996543884 1.098804473876953 0.345229148864746 166 104 89
0.391037762165070 -0.785101890563965 -0.346145629882813 142 82 58
0.387917637825012 -0.091101616621017 0.078914642333984 107 22 25
0.390065491199493 0.087997719645500 0.124565124511719 88 12 14
0.387352645397186 0.571653842926025 0.293967247009277 112 25 31
0.386927336454391 1.211154937744141 0.215164184570313 187 132 111
0.397743463516235 -1.692657947540283 -0.406684875488281 185 134 91
0.399289846420288 -1.535802364349365 -0.374508857727051 177 124 82
0.404347687959671 -1.398284316062927 -0.352864265441895 175 122 82
0.402405917644501 -1.047114610671997 -0.350933074951172 155 105 72
0.398676663637161 -0.513741552829742 -0.214089393615723 124 32 33
0.398898065090179 -0.173556461930275 0.048180580139160 120 34 35
0.404777050018311 0.050734803080559 0.124094009399414 85 7 10
0.396109670400620 0.633462250232697 0.316728591918945 111 22 28
0.399524778127670 0.770477771759033 0.359025955200195 102 11 16
0.399134963750839 0.832462668418884 0.385021209716797 128 38 40
0.398634910583496 0.922065138816833 0.393745422363281 127 38 40
0.400728523731232 1.284796357154846 0.059862136840820 150 98 73
0.405181884765625 -1.733242630958557 -0.416599273681641 187 135 93
0.413165241479874 -1.466722607612610 -0.340977668762207 170 117 77
0.414384096860886 -0.339263051748276 -0.059947967529297 112 20 23
0.421185046434402 0.368673443794250 0.180788993835449 89 13 17
0.410396963357925 0.484962880611420 0.250594139099121 108 23 30
0.410808354616165 0.724774122238159 0.350893974304199 111 22 28
0.410819917917252 1.485156536102295 0.089815139770508 145 88 61
0.414175808429718 1.552023887634277 0.119143486022949 137 77 49
0.423989295959473 -1.055985212326050 -0.349081039428711 160 107 73
0.424253314733505 -0.972385883331299 -0.466596603393555 154 101 69
0.425508707761765 -0.649403989315033 -0.317120552062988 132 60 45
0.427711218595505 -0.293825864791870 -0.001629829406738 120 28 31
0.417005658149719 -0.004962861537933 0.147189140319824 104 24 27
0.430609285831451 0.172620519995689 0.138712882995605 86 10 14
0.421447634696960 0.234778299927711 0.159574508666992 82 7 11
0.430292099714279 1.350772738456726 0.073351860046387 151 97 71
0.427617192268372 1.454173207283020 0.077862739562988 150 93 65
0.435847669839859 -1.553978323936462 -0.403165817260742 174 123 80
0.432753086090088 -1.398257493972778 -0.365626335144043 165 111 73
0.443979442119598 -0.564145743846893 -0.242315292358398 125 43 35
0.439801216125488 -0.422809273004532 -0.184959411621094 110 18 21
0.431520342826843 -0.072882436215878 0.108951568603516 110 23 29
0.438951551914215 0.561405003070831 0.270374298095703 109 20 26
0.433264523744583 1.157789468765259 0.315905570983887 159 104 84
0.440521925687790 1.401990413665771 0.065904617309570 147 91 64
0.440626204013824 -1.700694084167480 -0.399070739746094 184 131 88
0.444862544536591 -1.219384074211121 -0.388260841369629 144 88 55
0.451794773340225 -0.485460102558136 -0.243107795715332 119 29 29
0.463394790887833 -1.487277626991272 -0.372428894042969 178 126 86
0.466930001974106 -0.428290128707886 -0.228874206542969 113 21 23
0.469859093427658 0.440468430519104 0.200388908386230 103 21 27
0.460988670587540 0.795351266860962 0.355605125427246 114 19 25
0.466202229261398 1.180474281311035 0.211678504943848 151 99 77
0.478825032711029 -0.859126865863800 -0.366739273071289 153 100 69
0.478509873151779 0.091653898358345 0.119054794311523 96 17 20
0.476118147373199 0.503380417823792 0.233606338500977 98 11 17
0.473197966814041 1.496567487716675 0.112107276916504 142 82 56
0.483297824859619 -1.682688951492310 -0.430728912353516 185 132 90
0.483301818370819 -1.401898264884949 -0.386689186096191 170 116 78
0.484189271926880 -0.208872780203819 -0.040071487426758 117 27 29
0.488656044006348 -0.043895915150642 0.115618705749512 97 10 16
0.490129053592682 0.224964573979378 0.203259468078613 95 19 23
0.497109353542328 0.299867570400238 0.160348892211914 96 18 24
0.487077713012695 0.412895202636719 0.208313941955566 105 24 30
0.482633769512177 0.623539626598358 0.288608551025391 116 26 32
0.484873056411743 0.697482943534851 0.321226119995117 120 28 33
0.480367183685303 0.963367938995361 0.377205848693848 159 82 76
0.484890580177307 1.115304112434387 0.278660774230957 159 104 84
0.477809786796570 1.537154436111450 0.130308151245117 145 85 59
0.501903891563416 -1.728149890899658 -0.455913543701172 187 134 90
0.494298636913300 -1.660384654998779 -0.417325973510742 183 130 88
0.501593649387360 -1.464112758636475 -0.380656242370605 173 121 81
0.499563127756119 -1.044511437416077 -0.340014457702637 163 109 75
0.503434479236603 0.077483013272285 0.100764274597168 97 15 19
0.500297963619232 0.775085687637329 0.338128089904785 117 22 26
0.497704714536667 0.819853663444519 0.361289024353027 128 36 39
0.497928768396378 0.845736384391785 0.366183280944824 119 30 31
0.502587497234344 1.629017591476440 0.170710563659668 143 81 58
0.516511261463165 -0.765649199485779 -0.338390350341797 146 92 66
0.509833812713623 -0.563792109489441 -0.324258804321289 141 69 55
0.510650813579559 -0.371622115373611 -0.234368324279785 113 23 23
0.511042594909668 -0.181302785873413 -0.060439109802246 106 14 17
0.511741459369659 0.375606477260590 0.231705665588379 98 17 23
0.507577359676361 0.542055368423462 0.252257347106934 115 28 34
0.513368427753448 -1.568050384521484 -0.424295425415039 184 133 90
0.520519912242889 -1.305156350135803 -0.409695625305176 177 123 85
0.521493494510651 -0.700553297996521 -0.323832511901855 152 96 71
0.528730511665344 0.177154347300529 0.144500732421875 93 13 19
0.524816393852234 0.843692898750305 0.365898132324219 125 38 37
0.525151431560516 0.970836758613586 0.378548622131348 156 89 78
0.523717403411865 1.179269909858704 0.135580062866211 149 97 73
0.532020628452301 1.558126449584961 0.120570182800293 145 85 59
0.524376273155212 1.681734800338745 0.272779464721680 143 81 58
0.532537221908569 -1.152587175369263 -0.357710838317871 164 110 76
0.529118716716766 -0.918125212192535 -0.374201774597168 151 96 66
0.537698507308960 -0.479767382144928 -0.271147727966309 115 36 29
0.528499066829681 -0.399628341197968 -0.239868164062500 113 28 25
0.532050132751465 -0.306781232357025 -0.140025138854980 119 25 26
0.535072386264801 0.263899505138397 0.112536430358887 98 19 25
0.542144060134888 1.065326571464539 0.280582427978516 158 102 82
0.535961866378784 1.381999731063843 0.047305107116699 146 89 62
0.534308016300201 1.460924863815308 0.112812995910645 148 88 60
0.533872306346893 -1.702480435371399 -0.446288108825684 183 130 87
0.538390398025513 -1.228004336357117 -0.383301734924316 164 108 71
0.550580382347107 -1.027677178382874 -0.308688163757324 162 108 74
0.551361083984375 0.076630100607872 0.088647842407227 104 19 24
0.543951153755188 0.812006175518036 0.341069221496582 128 38 38
0.544787228107452 1.013847947120667 0.329596519470215 153 96 79
0.540051639080048 1.219529867172241 0.055563926696777 150 98 74
0.552805840969086 1.615142941474915 0.129464149475098 146 84 61
0.553678810596466 -1.722148060798645 -0.456856727600098 187 134 90
0.561092257499695 0.002067863941193 0.100141525268555 111 22 26
0.556684970855713 0.302017509937286 0.142314910888672 100 21 27
0.555624365806580 0.387744486331940 0.242945671081543 103 21 27
0.556864857673645 0.555760204792023 0.264254570007324 113 24 30
0.561842501163483 0.672858834266663 0.326115608215332 112 17 23
0.562890529632568 1.253767371177673 0.035470008850098 147 95 67
0.562861442565918 1.636916756629944 0.155705451965332 148 86 63
0.564788997173309 -1.639281630516052 -0.454041481018066 184 131 89
0.568838715553284 -1.275990247726440 -0.395038604736328 172 116 79
0.573151767253876 -0.745463013648987 -0.503486633300781 148 97 68
0.573954463005066 -0.181593924760818 -0.090908050537109 114 20 21
0.567673683166504 0.736610174179077 0.346108436584473 121 27 28
0.573835968971252 1.136654853820801 0.149614334106445 149 99 76
0.579962015151978 -1.210250020027161 -0.385843276977539 170 114 77
0.577649056911469 -0.934967160224915 -0.300001144409180 151 96 65
0.577412009239197 -0.823096215724945 -0.550819396972656 148 94 66
0.581889748573303 -0.417695283889771 -0.279075622558594 113 39 28
0.580550193786621 0.057642176747322 0.105080604553223 116 29 35
0.589937925338745 0.177215293049812 0.116198539733887 102 20 24
0.579356491565704 0.224693551659584 0.151076316833496 96 15 21
0.586341261863708 1.079028964042664 0.199301719665527 162 112 89
0.587064027786255 1.387781023979187 0.116558074951172 147 91 61
0.588292062282562 1.645241498947144 0.176076889038086 142 80 57
0.594229936599731 -1.466765403747559 -0.429119110107422 178 126 86
0.596712231636047 -1.420151352882385 -0.413422584533691 174 120 82
0.592978477478027 -1.039947152137756 -0.278283119201660 159 103 70
0.590980470180511 -0.702296078205109 -0.370121002197266 144 93 66
0.595376849174500 -0.148530557751656 -0.069147109985352 108 12 14
0.594669461250305 0.331807971000671 0.150386810302734 101 15 26
0.601380348205566 0.536734461784363 0.219682693481445 98 11 17
0.600423216819763 0.843173027038574 0.345826148986816 148 69 64
0.601444065570831 0.914403796195984 0.353220939636230 153 84 74
0.594537138938904 1.467788577079773 0.144947052001953 147 87 59
0.606292009353638 -0.744672894477844 -0.416365623474121 142 91 62
0.613045632839203 -0.057439215481281 0.045928001403809 113 18 22
0.610627770423889 0.695982515811920 0.329451560974121 129 34 40
0.619179368019104 1.014359831809998 0.252990722656250 158 104 84
0.611104726791382 1.582129001617432 0.161498069763184 140 79 54
0.610626339912415 -0.832063019275665 -0.407543182373047 153 98 68
0.621691703796387 -0.017801195383072 0.088847160339355 116 21 25
0.617342472076416 0.034868046641350 0.139272689819336 109 18 23
0.623755097389221 0.940262556076050 0.337796211242676 157 94 81
0.621599435806274 1.248317718505859 0.109879493713379 142 91 64
0.615937769412994 1.614086389541626 0.171329498291016 146 84 61
0.633239805698395 1.659740805625916 0.203838348388672 150 88 65
0.620373845100403 -1.514783263206482 -0.420947074890137 175 122 82
0.626217842102051 -1.338104128837585 -0.457023620605469 178 125 85
0.627464413642883 -1.184136748313904 -0.384763717651367 164 108 73
0.628687381744385 -1.033707380294800 -0.303325653076172 159 102 72
0.627090036869049 0.081042364239693 0.123660087585449 119 30 34
0.633451223373413 0.353951334953308 0.206731796264648 102 19 25
0.639750361442566 0.398587286472321 0.244064331054688 107 22 29
0.640340268611908 0.824798703193665 0.312405586242676 136 62 53
0.630629897117615 1.227637887001038 0.112389564514160 140 89 62
0.635997772216797 -1.094561219215393 -0.351823806762695 154 98 65
0.637025237083435 -0.862770318984985 -0.414032936096191 153 98 68
0.647909581661224 0.226257130503654 0.136383056640625 115 30 37
0.650283336639404 0.492658913135529 0.259131431579590 100 10 19
0.653086423873901 0.620246827602386 0.291762351989746 109 17 24
0.657085776329041 0.987511992454529 0.228614807128906 151 94 77
0.643323898315430 1.383989095687866 0.125024795532227 144 85 56
0.652125000953674 -1.562193751335144 -0.439710617065430 184 131 90
0.645297527313232 -1.148585796356201 -0.401291847229004 168 112 78
0.657389521598816 -0.238614350557327 -0.166290283203125 124 34 33
0.658139824867249 0.417270839214325 0.205136299133301 102 14 22
0.658962905406952 0.556329786777496 0.243583679199219 114 23 32
0.656274318695068 1.080669999122620 0.139085769653320 138 88 63
0.650710582733154 1.201365590095520 0.096758842468262 144 93 66
0.661626577377319 1.651681661605835 0.174197196960449 148 86 63
0.660975396633148 -1.636711478233337 -0.476509094238281 176 123 81
0.658289968967438 -1.593764305114746 -0.443384170532227 178 125 83
0.664306998252869 -1.389942049980164 -0.443173408508301 173 119 81
0.666544556617737 -1.321985483169556 -0.478887557983398 167 114 74
0.662525713443756 -0.590845227241516 -0.431587219238281 139 87 63
0.663451671600342 -0.501397788524628 -0.335969924926758 145 88 68
0.664323687553406 -0.391928672790527 -0.289883613586426 149 84 67
0.666802883148193 -0.123318769037724 -0.061147689819336 122 27 31
0.678862869739532 0.469034731388092 0.212286949157715 111 21 30
0.677137017250061 0.631833672523499 0.287379264831543 106 15 20
0.680343985557556 -1.491186618804932 -0.414576530456543 176 123 83
0.675552964210510 -1.266407847404480 -0.432628631591797 174 120 82
0.671059489250183 -0.972911059856415 -0.349258422851563 159 105 69
0.685224652290344 0.077058777213097 0.099822998046875 106 17 21
0.687360405921936 0.312400817871094 0.105413436889648 110 25 32
0.685508608818054 0.657077252864838 0.294487953186035 113 22 27
0.681580424308777 1.388513326644897 0.107442855834961 145 85 57
0.686432003974915 -1.403430342674255 -0.413452148437500 172 118 80
0.685354650020599 -0.296333551406860 -0.243878364562988 108 35 23
0.692729949951172 0.007821306586266 0.043636322021484 108 18 20
0.702626705169678 0.601661026477814 0.260869026184082 108 19 23
0.694647610187531 0.709049761295319 0.304599761962891 125 36 38
0.695899367332458 1.028066277503967 0.150868415832520 151 99 77
0.695548295974731 1.269602298736572 0.059059143066406 144 88 61
0.688055396080017 1.397562384605408 0.114233970642090 146 85 56
0.698474526405334 1.639368057250977 0.183355331420898 144 82 59
0.697229504585266 -0.743070006370544 -0.347272872924805 155 102 71
0.704482197761536 -0.161498144268990 -0.155977249145508 120 29 28
0.706897377967834 0.434863269329071 0.199201583862305 115 25 34
0.701128363609314 -1.667855620384216 -0.497161865234375 187 135 93
0.710480451583862 -1.613473057746887 -0.490350723266602 176 123 81
0.707555770874023 -0.947470963001251 -0.357777595520020 153 99 65
0.711410880088806 -0.854037404060364 -0.395578384399414 154 100 66
0.711233615875244 -0.800211131572723 -0.355931282043457 151 96 66
0.715131223201752 -0.234354406595230 -0.232645034790039 111 31 22
0.720890402793884 0.369684219360352 0.166852951049805 109 19 28
0.722361564636230 0.484483480453491 0.205991744995117 109 18 27
0.723656237125397 0.640880763530731 0.279442787170410 116 30 33
0.723982334136963 0.945411562919617 0.165753364562988 139 82 63
0.714400589466095 1.179278492927551 0.033805847167969 148 94 65
0.716055512428284 -1.195686340332031 -0.423459053039551 156 102 66
0.721543431282043 -0.054100401699543 -0.056728363037109 113 23 25
0.732844233512878 0.321600794792175 0.083799362182617 105 15 24
0.726224541664124 1.326352000236511 0.120923995971680 150 93 63
0.732203722000122 -1.303710579872131 -0.447160720825195 173 120 80
0.727273464202881 -1.073378443717957 -0.411404609680176 149 95 59
0.730202436447144 -0.621520996093750 -0.380553245544434 144 95 65
0.740534901618958 -0.556100547313690 -0.269074440002441 146 97 67
0.743994474411011 0.155858084559441 0.090891838073730 120 29 36
0.739650249481201 0.198053851723671 0.104680061340332 108 17 24
0.743351519107819 1.510441064834595 0.184605598449707 134 73 45
0.741001129150391 -1.008306860923767 -0.419023513793945 162 108 74
0.760849952697754 0.043047353625298 0.067711830139160 115 24 29
0.767474770545959 0.742628931999207 0.289677619934082 200 127 118
0.746178805828094 1.221027374267578 0.057648658752441 143 90 59
0.758914470672607 -1.712387800216675 -0.464612007141113 187 136 93
0.760337710380554 -1.402075052261353 -0.406764030456543 173 120 80
0.759572029113770 -1.354542613029480 -0.432406425476074 172 119 79
0.766903042793274 -0.785741329193115 -0.379667282104492 159 104 73
0.760579824447632 -0.636800646781921 -0.336691856384277 148 97 66
0.758217513561249 -0.249991238117218 -0.258359909057617 132 64 51
0.760508656501770 -0.092702955007553 -0.151251792907715 104 18 17
0.759202361106873 -0.060491330921650 -0.110501289367676 102 16 17
0.771745800971985 0.485624551773071 0.175408363342285 109 18 25
0.773647248744965 0.957375288009644 0.101118087768555 133 83 58
0.767590522766113 1.148745417594910 0.017619132995605 147 94 63
0.769242286682129 1.634539365768433 0.172109603881836 142 80 57
0.767617225646973 -1.300158739089966 -0.415795326232910 174 121 81
0.769021272659302 -0.965736269950867 -0.382664680480957 158 104 70
0.783811509609222 0.579991757869720 0.228439331054688 119 33 36
0.777444362640381 1.512146472930908 0.169608116149902 137 76 48
0.786584258079529 -1.553761720657349 -0.418198585510254 181 128 84
0.779159069061279 -0.757341623306274 -0.371817588806152 156 101 71
0.781716763973236 -0.710484743118286 -0.373517036437988 157 104 73
0.775062203407288 -0.205639630556107 -0.280742645263672 128 58 46
0.791536211967468 1.310866713523865 0.138992309570313 138 80 50
0.790894150733948 -1.162053465843201 -0.423221588134766 168 114 76
0.797113299369812 -0.376259654760361 -0.346449851989746 137 87 60
0.805781483650208 0.237746611237526 0.058772087097168 107 16 23
0.804213702678680 0.492606639862061 0.164454460144043 112 21 28
0.812349498271942 0.878141641616821 0.246958732604980 165 110 89
0.809865832328796 -1.601734399795532 -0.440304756164551 180 127 85
0.804087638854980 -1.384692430496216 -0.466603279113770 175 122 82
0.802250027656555 -1.322863936424255 -0.502318382263184 171 118 78
0.801717102527618 -1.111787676811218 -0.426003456115723 165 111 75
0.813604116439819 -0.625920355319977 -0.361169815063477 149 98 67
0.813146829605103 -0.566606640815735 -0.319505691528320 147 96 66
0.809455990791321 -0.482750713825226 -0.360851287841797 140 91 61
0.810845673084259 -0.136426061391830 -0.218851089477539 105 28 20
0.813365936279297 0.099231734871864 0.021713256835938 108 19 23
0.820739746093750 0.412363529205322 0.120756149291992 115 24 31
0.819191277027130 0.606532156467438 0.222238540649414 128 47 46
0.810327768325806 1.259643793106079 0.057658195495605 146 89 60
0.818184673786163 1.567407011985779 0.165915489196777 142 81 53
0.807700991630554 -1.634498238563538 -0.471065521240234 180 127 83
0.812678158283234 -1.241984605789185 -0.422972679138184 170 116 78
0.819156885147095 -0.865480899810791 -0.413493156433105 144 90 56
0.824537038803101 -0.544116854667664 -0.306508064270020 148 97 68
0.829274415969849 0.162665054202080 0.018548965454102 104 15 21
0.822480499744415 0.191790267825127 0.025331497192383 111 22 28
0.826240658760071 0.280562996864319 0.049448013305664 107 16 25
0.837947666645050 0.932074904441833 0.110653877258301 146 94 70
0.823080301284790 1.230629205703735 0.039154052734375 142 85 56
0.822512090206146 -1.196678161621094 -0.426351547241211 171 117 79
0.823822975158691 -1.182836532592773 -0.424164772033691 171 117 79
0.822822332382202 -1.029240608215332 -0.433622360229492 167 113 79
0.834412872791290 -0.636904835700989 -0.360000610351563 154 101 70
0.833715915679932 -0.619032382965088 -0.358055114746094 155 102 71
0.858545899391174 0.826508402824402 0.217239379882813 156 102 78
0.838502526283264 1.456682920455933 0.167304992675781 143 80 52
0.849247992038727 -1.482903122901917 -0.281753540039063 179 126 85
0.839269459247589 -1.446897983551025 -0.318681716918945 176 123 83
0.839923620223999 -0.004078462719917 -0.160361289978027 112 34 29
0.857601702213287 0.516660630702972 0.146310806274414 120 34 35
0.849767208099365 1.097124814987183 -0.026134490966797 136 81 51
0.854388833045959 1.354425668716431 0.117508888244629 136 76 48
0.849293172359467 -1.360335230827332 -0.432460784912109 177 124 84
0.852543711662292 -0.078621536493301 -0.234152793884277 121 47 38
0.877490401268005 0.666180193424225 0.219627380371094 156 88 77
0.858552217483521 -1.089355707168579 -0.442816734313965 167 113 77
0.866736769676208 -0.741902709007263 -0.370139122009277 154 99 68
0.865304052829742 0.934539318084717 -0.075617790222168 144 93 66
0.875346302986145 1.235330224037170 0.020201683044434 144 87 58
0.874054431915283 1.411584854125977 0.146007537841797 144 82 54
0.874796867370605 1.446394681930542 0.159332275390625 143 79 52
0.875251471996307 1.536622405052185 0.195972442626953 149 88 60
0.868969559669495 -1.594569563865662 -0.467843055725098 178 125 83
0.879083275794983 -1.558643579483032 -0.431090354919434 182 129 87
0.871573030948639 -0.992148399353027 -0.406104087829590 166 112 76
0.873193919658661 -0.933853089809418 -0.399821281433105 155 101 65
0.892173707485199 0.712838649749756 0.237629890441895 155 96 78
0.890294790267944 1.049165368080139 -0.050256729125977 128 74 46
0.896449446678162 -0.450942277908325 -0.306655883789063 144 93 64
0.897902607917786 -0.360120892524719 -0.258893013000488 139 88 61
0.898217558860779 0.042109280824661 -0.024150848388672 119 44 38
0.902656555175781 0.079334095120430 -0.049464225769043 126 48 44
0.906564712524414 0.199601456522942 0.002737045288086 119 38 35
0.895525574684143 0.326745867729187 0.021775245666504 109 25 25
0.901355385780334 0.354458570480347 0.055040359497070 116 32 32
0.894098460674286 -0.850824594497681 -0.397645950317383 157 103 69
0.894582927227020 -0.785484910011292 -0.375409126281738 155 99 66
0.902067780494690 -0.540163993835449 -0.397513389587402 151 98 67
0.901379883289337 -0.422268867492676 -0.288365364074707 145 94 65
0.917413711547852 0.397122383117676 0.082077026367188 127 46 43
0.917005300521851 0.426383018493652 0.070775032043457 115 34 30
0.920368313789368 0.800562798976898 0.174043655395508 147 95 71
0.916331052780151 0.847043156623840 0.153405189514160 142 92 65
0.913079261779785 1.175366163253784 0.016255378723145 140 83 54
0.910374045372009 -1.376885294914246 -0.319890975952148 175 123 83
0.907661676406860 -1.227363824844360 -0.491495132446289 174 122 83
0.906436562538147 -1.046537876129150 -0.469921112060547 164 110 74
0.914512872695923 -0.502264261245728 -0.389472007751465 143 92 61
0.913010120391846 -0.000811427831650 -0.219571113586426 149 82 69
0.927846908569336 0.109361246228218 -0.045610427856445 127 52 46
0.922612428665161 0.218424543738365 0.011411666870117 109 31 27
0.920253634452820 1.217874407768250 0.005177497863770 144 86 57
0.926715373992920 1.369081497192383 0.127572059631348 141 80 52
0.936774373054504 1.605352640151978 0.211716651916504 141 79 54
0.931727528572083 1.668303370475769 0.197564125061035 146 84 61
0.914107680320740 -1.661172866821289 -0.473332405090332 178 125 81
0.916646361351013 -1.627676963806152 -0.469961166381836 183 130 87
0.916138291358948 -1.183309912681580 -0.470311164855957 165 112 72
0.943840265274048 0.572734236717224 0.160604476928711 160 95 80
0.945284962654114 0.597781062126160 0.173599243164063 160 98 81
0.931183934211731 0.949244737625122 -0.052806854248047 151 97 69
0.932257771492004 0.982700943946838 -0.034823417663574 147 93 65
0.940026402473450 1.317629218101501 0.131561279296875 141 80 52
0.933372020721436 -1.502523660659790 -0.399532318115234 178 127 84
0.934331893920898 -0.904224395751953 -0.420595169067383 160 106 70
0.932758808135986 -0.662969470024109 -0.362680435180664 151 98 66
0.933304667472839 -0.288432270288467 -0.397935867309570 137 88 58
0.934672236442566 -0.225769519805908 -0.311787605285645 135 85 57
0.934772372245789 -0.153776526451111 -0.261501312255859 140 86 62
0.941759228706360 0.228469923138618 0.003043174743652 110 32 28
0.961279511451721 0.720691800117493 0.192812919616699 148 96 72
0.950305342674255 0.881907701492310 0.095063209533691 152 98 72
0.957788825035095 1.501836180686951 0.204311370849609 150 88 63
0.943858027458191 -0.706794142723083 -0.399176597595215 153 99 65
0.966093778610229 0.518545150756836 0.066750526428223 157 91 77
0.969800114631653 0.737566530704498 0.114516258239746 149 97 73
0.956241011619568 1.106718897819519 0.002084732055664 147 90 61
0.958707451820374 1.394307494163513 0.142889022827148 141 80 52
0.957200169563293 -1.719257116317749 -0.461605072021484 184 131 87
0.959570527076721 -1.604897618293762 -0.444826126098633 183 130 88
0.947192668914795 -1.279656887054443 -0.385078430175781 179 127 88
0.957841873168945 -0.511381387710571 -0.374081611633301 147 94 63
0.968302488327026 -0.440658926963806 -0.391805648803711 148 95 63
0.963590860366821 0.948878884315491 -0.060034751892090 147 93 65
0.968698740005493 -1.446169257164001 -0.401217460632324 175 123 83
0.977544784545898 -0.397927284240723 -0.331782341003418 144 93 62
0.970131874084473 0.005570024251938 -0.305388450622559 140 81 63
0.986727476119995 0.383523523807526 0.027239799499512 159 91 78
0.986377000808716 0.430683553218842 0.024825096130371 153 88 74
0.994371652603149 0.779803872108459 0.011394500732422 150 96 70
0.980647921562195 -0.028622895479202 -0.370686531066895 143 86 66
0.998639583587646 0.060268193483353 -0.116672515869141 141 80 62
1.003133535385132 0.498215138912201 -0.008882522583008 156 94 76
0.995406746864319 1.221782088279724 -0.004712104797363 136 76 48
1.004583954811096 1.580978155136108 0.254905700683594 140 78 54
0.986003756523132 -1.670040130615234 -0.483536720275879 183 130 88
0.995529413223267 -1.554007053375244 -0.446898460388184 178 127 84
0.998404383659363 -1.382065296173096 -0.351147651672363 180 127 87
0.996104001998901 -0.802410304546356 -0.373633384704590 148 94 60
0.995759487152100 -0.761507332324982 -0.367774963378906 156 102 68
1.018134832382202 0.609223246574402 0.016825675964355 144 90 66
1.015018939971924 1.054761290550232 -0.038142204284668 134 77 48
1.012274742126465 1.178815841674805 -0.006876945495605 139 80 51
1.016787648200989 1.347362518310547 0.151306152343750 143 82 54
1.011206030845642 1.374444961547852 0.127016067504883 142 81 53
1.020594954490662 1.670890331268311 0.235018730163574 144 82 59
1.001181483268738 -1.495833039283752 -0.415867805480957 177 126 83
1.009040117263794 -0.712161779403687 -0.333176612854004 150 95 64
1.010211348533630 -0.578337013721466 -0.335181236267090 146 93 61
1.007636427879333 -0.419513702392578 -0.359927177429199 150 95 65
1.009122967720032 -0.245068371295929 -0.308964729309082 136 85 54
1.027880668640137 0.187249973416328 -0.082055091857910 146 89 70
1.022854328155518 0.540253341197968 -0.016659736633301 148 91 71
1.015776991844177 -1.441621541976929 -0.448142051696777 180 128 86
1.009757995605469 -1.096897363662720 -0.485534667968750 169 115 77
1.016973972320557 -0.909857809543610 -0.380800247192383 153 99 63
1.015766739845276 -0.372788220643997 -0.312566757202148 146 93 62
1.034590721130371 0.412481486797333 -0.047015190124512 152 94 74
1.036397337913513 0.670829594135284 0.017716407775879 131 81 54
1.036102056503296 0.734887063503265 -0.003384590148926 148 94 68
1.035374522209167 1.149034142494202 0.000026702880859 143 84 54
1.051595091819763 1.603325605392456 0.332258224487305 142 80 55
1.025096774101257 -1.323421955108643 -0.445787429809570 174 122 82
1.033680438995361 -0.160564169287682 -0.298750877380371 133 82 53
1.042852044105530 0.185914680361748 -0.092313766479492 148 92 73
1.051850199699402 1.659989953041077 0.239002227783203 145 83 60
1.041360020637512 -0.075979068875313 -0.309219360351563 139 88 61
1.057736515998840 0.947902441024780 -0.063201904296875 140 83 54
1.062955975532532 1.312716960906982 0.186994552612305 145 82 54
1.067141771316528 1.489145278930664 0.189354896545410 140 78 53
1.043586254119873 -1.127200961112976 -0.443304061889648 165 111 73
1.041854381561279 -0.417819648981094 -0.353969573974609 145 90 60
1.072029709815979 0.364833235740662 -0.021232604980469 141 85 62
1.075128078460693 1.245099663734436 0.074447631835938 140 78 49
1.066165804862976 -1.731448769569397 -0.374485015869141 182 128 84
1.059422612190247 -1.492993116378784 -0.397317886352539 177 126 83
1.061404705047607 -1.438000082969666 -0.427477836608887 176 123 81
1.052071213722229 -1.218687295913696 -0.526726722717285 172 120 81
1.051463365554810 -0.955446004867554 -0.414340019226074 163 109 71
1.056253433227539 -0.821992337703705 -0.374760627746582 162 108 74
1.076752662658691 -0.036993980407715 -0.284054756164551 143 92 65
1.074506402015686 0.113284960389137 -0.117859840393066 143 91 69
1.085994839668274 0.393284261226654 0.002915382385254 146 92 66
1.088792085647583 0.482407093048096 -0.050018310546875 150 96 70
1.088688015937805 0.556384205818176 -0.033461570739746 144 93 68
1.074254274368286 0.863183259963989 -0.057764053344727 127 70 41
1.081201076507568 1.009922146797180 -0.033001899719238 121 62 32
1.089874386787415 1.108394622802734 0.020365715026855 142 82 48
1.060631394386292 -1.197109699249268 -0.490584373474121 174 122 83
1.069373369216919 -1.027874231338501 -0.451154708862305 169 113 76
1.070992588996887 -0.578641057014465 -0.360464096069336 154 99 68
1.075860738754272 -0.261348694562912 -0.362122535705566 141 87 56
1.092031002044678 0.223790720105171 -0.090902328491211 141 89 66
1.091037631034851 0.516687989234924 -0.062823295593262 142 92 67
1.095334529876709 0.627198219299316 0.005760192871094 143 92 65
1.084382057189941 -1.568378686904907 -0.378441810607910 177 126 83
1.088749885559082 -0.857417702674866 -0.368434906005859 158 104 68
1.106291294097900 0.690408229827881 -0.029190063476563 148 92 65
1.122399568557739 1.335998296737671 0.260892868041992 145 81 54
1.101403117179871 -1.647638678550720 -0.408946037292480 185 132 90
1.101864337921143 -0.634077072143555 -0.327663421630859 146 91 60
1.104308485984802 -0.479836940765381 -0.368919372558594 147 92 61
1.107544660568237 -0.415427386760712 -0.358575820922852 146 91 61
1.119924902915955 0.077606126666069 -0.201009750366211 140 89 62
1.114902019500732 0.270126283168793 -0.123970031738281 138 87 62
1.138269186019897 1.318397641181946 0.251205444335938 148 84 56
1.131773829460144 1.375599741935730 0.146739959716797 142 81 53
1.123960733413696 1.642308831214905 0.116598129272461 144 83 59
1.117834925651550 0.134364500641823 -0.178173065185547 139 88 61
1.129979848861694 0.934609055519104 -0.019582748413086 144 84 55
1.119574546813965 -1.136389970779419 -0.308884620666504 168 114 76
1.122482061386108 -0.791481018066406 -0.355761528015137 158 105 71
1.124221205711365 -0.737010538578033 -0.384975433349609 151 98 66
1.120649218559265 -0.260107457637787 -0.367508888244629 141 86 56
1.124945163726807 -0.232725277543068 -0.316263198852539 141 86 56
1.138121962547302 0.082464441657066 -0.214754104614258 138 87 60
1.140752673149109 0.477543652057648 -0.046613693237305 145 94 65
1.147819399833679 0.896703004837036 -0.018081665039063 141 81 53
1.151569485664368 1.596703648567200 0.190090179443359 137 77 51
1.134857416152954 -1.278426408767700 -0.373666763305664 173 120 80
1.128597140312195 -0.502183258533478 -0.378230094909668 149 93 62
1.146704912185669 0.165931299328804 -0.174731254577637 143 89 63
1.146840453147888 0.262070834636688 -0.163789749145508 135 85 58
1.158639430999756 0.867918610572815 -0.027071952819824 143 83 55
1.176031589508057 1.424483537673950 0.150352478027344 142 82 56
1.147577404975891 -1.726928710937500 -0.354149818420410 186 132 88
1.143255591392517 -0.864445209503174 -0.379048347473145 166 112 76
1.150999903678894 -0.637340366840363 -0.309496879577637 155 100 69
1.154055237770081 0.087910905480385 -0.264795303344727 137 85 58
1.165674448013306 0.582678914070129 -0.052413940429688 134 78 51
1.176340818405151 1.070430994033813 0.023917198181152 138 75 44
1.171588897705078 1.476582169532776 0.159603118896484 146 86 60
1.178444266319275 1.509708523750305 0.202043533325195 145 85 59
1.158525466918945 -1.391802191734314 -0.382760047912598 173 120 78
1.157278895378113 -0.939464390277863 -0.404297828674316 162 108 72
1.172712564468384 0.007045671343803 -0.252273559570313 142 86 59
1.169864773750305 0.053768306970596 -0.260528564453125 141 87 59
1.180765509605408 0.955911517143250 -0.009834289550781 144 83 54
1.178804516792297 1.026759505271912 0.001048088073730 138 75 44
1.166098952293396 -1.501655578613281 -0.443817138671875 177 126 83
1.168014645576477 -1.450718879699707 -0.459316253662109 175 124 82
1.166584134101868 -1.407385706901550 -0.414175033569336 172 119 77
1.178197503089905 -1.017057180404663 -0.332802772521973 164 110 72
1.172449588775635 -0.283053815364838 -0.359821319580078 144 87 58
1.171569228172302 -0.193892270326614 -0.311908721923828 145 88 59
1.184997797012329 0.822640955448151 -0.039887428283691 137 78 48
1.196612358093262 1.410110116004944 0.148437500000000 144 84 57
1.181754350662231 -1.601837277412415 -0.393160820007324 179 126 84
1.180072665214539 -0.889629006385803 -0.366518974304199 158 106 69
1.183688163757324 -0.717723906040192 -0.319369316101074 153 100 66
1.176157712936401 -0.372760057449341 -0.320742607116699 130 75 45
1.196300148963928 0.223363652825356 -0.165889739990234 136 82 56
1.218893170356750 1.321835875511169 0.149513244628906 147 83 56
1.189625620841980 -1.693029046058655 -0.372328758239746 181 128 84
1.205656886100769 -1.348041415214539 -0.270436286926270 173 120 80
1.194775223731995 -0.552873849868774 -0.328855514526367 154 97 67
1.208201169967651 0.334643721580505 -0.110564231872559 145 91 63
1.226257324218750 0.859231829643250 -0.038005828857422 140 79 51
1.219841122627258 1.218104243278503 0.085158348083496 142 81 53
1.224090099334717 1.619808197021484 0.131970405578613 142 82 56
1.212254762649536 -1.383265614509583 -0.346532821655273 175 122 82
1.211075425148010 -1.141909241676331 -0.167817115783691 170 117 77
1.211649537086487 -0.774708688259125 -0.338656425476074 150 97 63
1.202145457267761 -0.451501011848450 -0.390565872192383 150 95 65
1.207328200340271 -0.092557318508625 -0.252680778503418 135 78 49
1.222749471664429 0.526917040348053 -0.077795982360840 143 88 58
1.229125976562500 0.626238703727722 -0.042243957519531 136 79 50
1.218442320823669 0.708263516426086 -0.076000213623047 130 70 42
1.225332856178284 0.784363329410553 -0.066150665283203 143 82 54
1.248658418655396 1.572593569755554 0.202163696289063 139 79 53
1.222017526626587 -0.568712353706360 -0.316321372985840 153 97 66
1.226018309593201 0.129706844687462 -0.203133583068848 145 89 62
1.259478449821472 1.285785913467407 0.143820762634277 149 86 61
1.230553269386292 -0.303399950265884 -0.321770668029785 143 86 59
1.242548584938049 0.183973893523216 -0.172068595886230 133 77 50
1.251660704612732 0.898090124130249 -0.034489631652832 139 75 47
1.250077724456787 -1.704374670982361 -0.387358665466309 187 134 90
1.238283395767212 -1.231562614440918 -0.205402374267578 167 114 74
1.251376032829285 -0.568338632583618 -0.321063041687012 155 100 69
1.241200447082520 -0.426834106445313 -0.360896110534668 149 94 63
1.259649157524109 0.824474155902863 -0.049077987670898 138 74 47
1.264024496078491 0.938326358795166 -0.020013809204102 140 76 48
1.276812672615051 1.184463143348694 0.094527244567871 145 82 55
1.272793412208557 1.667084455490112 0.080290794372559 145 83 58
1.258850812911987 -1.395636320114136 -0.366386413574219 179 127 87
1.263987183570862 -1.283329486846924 -0.340537071228027 171 119 79
1.255338907241821 -1.144730329513550 -0.202227592468262 169 117 77
1.282067656517029 1.088129162788391 0.029133796691895 143 79 52
1.294263005256653 1.266596078872681 0.142457962036133 140 78 53
1.269915938377380 -1.108674049377441 -0.235854148864746 163 111 71
1.268295645713806 -1.067300200462341 -0.248737335205078 165 113 73
1.269021272659302 -0.189266979694366 -0.299510002136230 141 84 55
1.282734274864197 0.263819038867950 -0.176727294921875 130 74 47
1.275413870811462 0.329384744167328 -0.122928619384766 135 79 52
1.283553123474121 0.539495825767517 -0.049822807312012 142 84 55
1.287147760391235 0.885691046714783 -0.037159919738770 144 80 52
1.293966293334961 1.616508483886719 0.068043708801270 143 83 57
1.263815999031067 -1.595425724983215 -0.493083953857422 176 123 81
1.280290603637695 -1.364053130149841 -0.330325126647949 171 119 80
1.274959921836853 -1.322829127311707 -0.349007606506348 173 121 82
1.272248625755310 -1.228140592575073 -0.330833435058594 175 123 84
1.271765708923340 -0.890631318092346 -0.373965263366699 164 112 75
1.272840142250061 -0.871355295181274 -0.387929916381836 164 112 75
1.281500577926636 -0.544696271419525 -0.297433853149414 153 99 65
1.277269482612610 -0.490415394306183 -0.375779151916504 145 91 57
1.277312397956848 -0.399579107761383 -0.333411216735840 142 87 56
1.292882800102234 0.080839946866035 -0.224179267883301 139 82 55
1.300149559974670 0.623764038085938 -0.034750938415527 135 74 46
1.310061335563660 1.634356856346130 0.037773132324219 143 80 56
1.292005896568298 -0.788358211517334 -0.333436012268066 161 109 72
1.296663641929626 -0.656861603260040 -0.252379417419434 152 98 62
1.292593598365784 -0.279316425323486 -0.334198951721191 142 85 56
1.301609516143799 -0.023095697164536 -0.238903045654297 131 74 45
1.314926624298096 0.431207537651062 -0.090953826904297 138 78 50
1.325745940208435 1.253239393234253 0.125158309936523 144 82 59
1.329751253128052 1.358241677284241 0.113897323608398 143 81 56
1.331219315528870 1.439123868942261 0.162050247192383 146 84 60
1.291929244995117 -1.643058419227600 -0.457745552062988 181 128 86
1.306179523468018 -1.290795683860779 -0.387563705444336 168 116 77
1.294028043746948 -0.983677804470062 -0.431355476379395 163 111 72
1.309567809104919 -0.626328587532043 -0.236831665039063 152 98 64
1.300382971763611 -0.377533733844757 -0.356116294860840 145 88 58
1.310116648674011 -0.093085497617722 -0.240479469299316 136 79 50
1.311369538307190 -0.045214712619781 -0.247471809387207 139 82 52
1.316473484039307 0.021459087729454 -0.231207847595215 135 78 49
1.307893514633179 0.066900551319122 -0.253170967102051 138 81 54
1.324054002761841 0.694457948207855 -0.031333923339844 136 75 47
1.329931497573853 0.760618746280670 -0.022887229919434 142 78 51
1.334638833999634 1.116941809654236 0.087164878845215 147 83 58
1.338271021842957 1.592579364776611 0.172893524169922 145 83 60
1.300640225410461 -1.528093218803406 -0.536032676696777 182 129 87
1.306474685668945 -1.481713652610779 -0.515593528747559 180 127 86
1.307112574577332 -1.072742819786072 -0.359102249145508 169 117 77
1.303029775619507 -0.840268075466156 -0.447455406188965 158 106 69
1.322685480117798 -0.533013582229614 -0.347850799560547 149 95 61
1.333142757415771 0.376711070537567 -0.131668090820313 127 67 39
1.332176685333252 0.559972167015076 -0.049407005310059 139 78 50
