ply
format ascii 1.0
element vertex 725
property double x
property double y
property double z
property uchar red
property uchar green
property uchar blue
end_header
2.536691904067993 0.111834794282913 0.430282592773438 149 70 51
2.459570407867432 0.585714817047119 -0.209781646728516 166 110 97
2.450500011444092 0.695445299148560 -0.286096572875977 151 99 85
2.439152479171753 0.828161895275116 -0.357303619384766 155 108 92
2.421891212463379 0.990500152111053 -0.512285232543945 159 113 97
2.419100284576416 1.067913770675659 -0.495854377746582 146 97 80
2.405148506164551 1.443451285362244 -0.635267257690430 158 107 86
2.450910806655884 2.635076999664307 -0.255517959594727 154 103 74
2.457710266113281 2.748550176620483 -0.152408599853516 151 98 67
2.443745851516724 2.846150159835815 -0.351892471313477 145 94 63
2.501994132995605 3.267318725585938 0.119689941406250 145 98 67
2.488970518112183 3.322102546691895 0.024377822875977 144 97 67
2.475328445434570 3.391111373901367 -0.091438293457031 148 97 66
2.477616548538208 3.476734638214111 -0.051303863525391 149 101 65
2.481322288513184 3.508480072021484 -0.051410675048828 150 102 66
2.510468482971191 -3.166766643524170 0.161083221435547 181 119 106
2.489265918731689 -2.788007974624634 -0.030569076538086 197 139 121
2.488006830215454 -2.359700441360474 -0.030876159667969 176 120 105
2.466986894607544 -2.147418737411499 -0.176292419433594 188 132 115
2.485247850418091 -1.672389745712280 -0.029674530029297 178 107 87
2.569340944290161 -0.996205508708954 0.648105621337891 158 76 64
2.574128150939941 -0.910980403423309 0.666936874389648 156 72 62
2.552626132965088 -0.345975995063782 0.512138366699219 142 54 42
2.549520492553711 -0.219782590866089 0.492725372314453 146 60 45
2.556133985519409 -0.076722323894501 0.497632980346680 150 66 42
2.540889024734497 0.178107410669327 0.370775222778320 153 75 55
2.491708278656006 0.371139436960220 0.005680084228516 159 87 72
2.467733144760132 0.563914895057678 -0.192592620849609 158 100 88
2.456753253936768 0.637528300285339 -0.277282714843750 159 105 93
2.431253671646118 1.147810220718384 -0.503636360168457 157 106 87
2.448236703872681 2.654896736145020 -0.316982269287109 148 97 66
2.494123220443726 3.065865755081177 0.040605545043945 144 93 62
2.501192331314087 3.123151302337646 0.068847656250000 143 94 62
2.499530553817749 3.636993169784546 0.049903869628906 151 101 66
2.541026830673218 -3.473172903060913 0.350448608398438 201 133 115
2.503665208816528 -2.931317090988159 0.034370422363281 203 141 126
2.497175931930542 -2.885519027709961 0.001398086547852 197 136 118
2.500882148742676 -2.863461017608643 0.008800506591797 190 129 111
2.491890668869019 -2.697849035263062 -0.066267013549805 197 140 123
2.496795415878296 -2.449160337448120 -0.035129547119141 195 139 122
2.490394830703735 -2.302413225173950 -0.077919006347656 181 125 108
2.479583024978638 -2.030380964279175 -0.156997680664063 169 112 93
2.491296768188477 -1.789048671722412 -0.080524444580078 177 115 97
2.574209690093994 -0.509521603584290 0.617504119873047 157 69 48
2.554136037826538 0.016146570444107 0.457258224487305 151 64 44
2.554272174835205 0.050343900918961 0.437231063842773 159 76 54
2.459627866744995 0.776905775070190 -0.324520111083984 158 110 96
2.455742359161377 0.807601988315582 -0.347171783447266 157 109 96
2.448298692703247 0.846093714237213 -0.375766754150391 156 110 94
2.451969861984253 0.888533055782318 -0.359426498413086 154 108 92
2.448114633560181 2.057206630706787 -0.424517631530762 153 95 76
2.463454484939575 2.222810268402100 -0.264232635498047 158 96 71
2.470058202743530 2.314039468765259 -0.222991943359375 154 94 70
2.473916053771973 2.364879608154297 -0.206239700317383 150 93 68
2.467408180236816 2.392098665237427 -0.243896484375000 155 99 72
2.517721891403198 -3.023794651031494 0.124338150024414 202 140 127
2.488720178604126 -2.749648332595825 -0.104320526123047 197 140 121
2.486575841903687 -2.184636831283569 -0.153551101684570 180 124 107
2.488487005233765 -2.081742525100708 -0.158924102783203 179 122 103
2.500133514404297 -1.713526964187622 -0.057018280029297 178 112 93
2.537415266036987 -1.432891845703125 0.228811264038086 146 66 45
2.584804773330688 -1.072860717773438 0.625150680541992 174 93 74
2.438700914382935 1.075539946556091 -0.520439147949219 155 106 89
2.444720745086670 1.189536333084106 -0.483785629272461 151 103 83
2.451197624206543 1.539037704467773 -0.407312393188477 146 95 73
2.454897642135620 1.619076013565063 -0.418897628784180 161 110 88
2.453013181686401 1.702363491058350 -0.434918403625488 158 103 79
2.472702264785767 2.276175260543823 -0.228876113891602 159 97 72
2.461783409118652 2.539637088775635 -0.343578338623047 153 98 70
2.464483976364136 2.574968576431274 -0.327159881591797 151 97 69
2.504875659942627 2.967528820037842 0.007858276367188 154 105 73
2.497433185577393 3.439154624938965 -0.059196472167969 153 103 68
2.501616239547729 3.497158765792847 -0.013685226440430 144 97 59
2.562144279479980 -3.431975841522217 0.394416809082031 200 133 114
2.493120670318604 -2.243427038192749 -0.122987747192383 193 137 122
2.494346857070923 -1.947447538375854 -0.116090774536133 176 118 98
2.504906415939331 -1.752203464508057 -0.077489852905273 173 111 93
2.587080717086792 -1.118842124938965 0.561933517456055 150 72 52
2.589155435562134 -0.848266899585724 0.617364883422852 161 75 60
2.587378740310669 -0.611836850643158 0.609428405761719 156 70 53
2.568372249603271 -0.281155705451965 0.461259841918945 136 51 36
2.526092529296875 0.226655468344688 0.116228103637695 153 78 59
2.522823095321655 0.257585287094116 0.084875106811523 152 78 60
2.521352291107178 0.305251568555832 0.084735870361328 160 88 73
2.501913070678711 0.406656891107559 -0.055105209350586 153 85 72
2.465157747268677 0.777550458908081 -0.313928604125977 158 110 96
2.457710504531860 0.957837402820587 -0.427769660949707 151 106 90
2.442593336105347 1.304787993431091 -0.551561355590820 160 112 92
2.473450422286987 1.461832046508789 -0.328561782836914 144 93 74
2.465993881225586 1.807406902313232 -0.347425460815430 166 108 86
2.516232013702393 3.075430154800415 0.031177520751953 145 94 63
2.512816190719604 3.370058059692383 -0.021867752075195 141 92 60
2.510642766952515 3.529387474060059 -0.033834457397461 144 99 60
2.577803134918213 -3.488104104995728 0.420845031738281 190 123 104
2.540045499801636 -3.222551345825195 0.160846710205078 203 141 126
2.541437387466431 -3.144698381423950 0.181377410888672 185 123 110
2.518211364746094 -2.858292341232300 0.001947402954102 202 141 123
2.510888338088989 -2.653063774108887 -0.071107864379883 183 124 108
2.508430957794189 -2.356843948364258 -0.065807342529297 193 135 121
2.533064365386963 -1.541232585906982 0.101665496826172 178 105 83
2.588738203048706 -1.172684192657471 0.510848999023438 163 86 68
2.582439899444580 -0.376662909984589 0.468206405639648 148 61 41
2.575974941253662 -0.141652762889862 0.424219131469727 141 59 37
2.574339628219604 -0.060587227344513 0.427131652832031 149 67 45
2.540259361267090 0.193792223930359 0.166902542114258 155 80 61
2.487153530120850 0.673944830894470 -0.279733657836914 163 114 100
2.451549053192139 1.134958028793335 -0.535123825073242 157 106 89
2.460052251815796 1.741612911224365 -0.459002494812012 159 103 80
2.488982915878296 2.365097284317017 -0.246999740600586 146 88 64
2.514200925827026 3.460568666458130 -0.012105941772461 153 103 67
2.565653085708618 -3.367827415466309 0.326333999633789 188 125 107
2.545580148696899 -3.242359638214111 0.164793014526367 195 133 118
2.514122962951660 -2.055623769760132 -0.085821151733398 189 132 113
2.517991065979004 -1.650849103927612 -0.069347381591797 175 107 86
2.530017137527466 -1.583432674407959 -0.002370834350586 171 97 76
2.540365457534790 -1.444276809692383 0.124351501464844 153 75 55
2.604502201080322 -0.659972727298737 0.591423034667969 154 68 51
2.599171400070190 -0.487147212028503 0.546197891235352 147 61 38
2.593910932540894 -0.465044915676117 0.518274307250977 155 69 46
2.575931549072266 -0.016227871179581 0.400163650512695 159 78 57
2.484964370727539 0.913534283638000 -0.337310791015625 149 103 87
2.468402624130249 1.593402862548828 -0.446050643920898 149 100 78
2.474740505218506 1.658338546752930 -0.424386024475098 152 98 77
2.482065916061401 2.537636995315552 -0.370197296142578 157 102 72
2.479795694351196 2.598827838897705 -0.327796936035156 156 103 72
2.537394762039185 3.276284217834473 0.082492828369141 155 108 78
2.538969516754150 3.613312959671021 0.087772369384766 152 103 67
2.521471023559570 -2.196603059768677 -0.126535415649414 182 126 109
2.524323701858521 -2.170567512512207 -0.086650848388672 178 121 104
2.515902519226074 -2.074122190475464 -0.140373229980469 178 121 102
2.521147727966309 -1.827795028686523 -0.126754760742188 142 81 62
2.521623849868774 -1.692141532897949 -0.102136611938477 183 118 98
2.612797260284424 -0.941340267658234 0.627567291259766 142 65 47
2.611727237701416 -0.683458387851715 0.570037841796875 150 66 48
2.585095405578613 -0.231335818767548 0.391786575317383 146 60 43
2.583267927169800 -0.103018760681152 0.386026382446289 153 72 51
2.558090686798096 0.126547843217850 0.191425323486328 158 81 63
2.554088592529297 0.159830152988434 0.155347824096680 152 76 60
2.540516614913940 0.240825340151787 0.054841995239258 158 85 68
2.526027917861938 0.400152146816254 -0.073642730712891 160 96 81
2.522942066192627 0.439212679862976 -0.109972000122070 151 92 78
2.493817806243896 0.621944665908813 -0.298961639404297 153 101 88
2.463070869445801 1.059797048568726 -0.554871559143066 146 99 81
2.465006351470947 1.149475336074829 -0.541036605834961 152 103 86
2.472346544265747 1.191561222076416 -0.476587295532227 154 106 86
2.507798433303833 1.346405148506165 -0.196743011474609 155 104 85
2.478687763214111 1.642646789550781 -0.421561241149902 157 105 83
2.501428604125977 2.196507215499878 -0.227451324462891 155 93 72
2.515806436538696 2.804813385009766 -0.151531219482422 151 100 71
2.527068614959717 3.025707244873047 -0.027584075927734 143 92 61
2.535715103149414 3.046513795852661 -0.006772994995117 146 95 64
2.541536331176758 3.283876895904541 0.056016921997070 147 100 70
2.529628038406372 3.324715375900269 -0.029344558715820 149 100 70
2.529561996459961 3.434811592102051 -0.066461563110352 145 95 60
2.561506748199463 -3.171517372131348 0.177219390869141 200 138 124
2.530814409255981 -2.630070447921753 -0.076116561889648 184 125 109
2.529515981674194 -2.481247663497925 -0.087373733520508 180 125 105
2.537586927413940 -1.556596994400024 -0.010965347290039 179 106 86
2.541856765747070 -1.510029315948486 -0.007106781005859 177 106 86
2.619483947753906 -0.765170156955719 0.585769653320313 156 71 51
2.610646247863770 -0.553806364536285 0.550811767578125 159 77 56
2.592834234237671 -0.343731701374054 0.400814056396484 150 65 45
2.579863786697388 -0.065751016139984 0.342910766601563 149 67 46
2.540956020355225 0.347689896821976 -0.024654388427734 160 94 80
2.516665220260620 0.545377492904663 -0.213027954101563 163 110 96
2.462575912475586 0.994259595870972 -0.571926116943359 158 112 96
2.493457794189453 1.491933107376099 -0.387008666992188 160 107 89
2.492933511734009 1.994837999343872 -0.364360809326172 152 94 72
2.503787517547607 2.090400695800781 -0.289863586425781 152 91 70
2.512171030044556 2.222235441207886 -0.212493896484375 153 92 71
2.496087074279785 2.436626195907593 -0.352449417114258 154 97 70
2.518285751342773 2.794589757919312 -0.167963027954102 154 103 74
2.544621467590332 3.153543949127197 0.013706207275391 153 104 71
2.546159744262695 3.182183265686035 0.023811340332031 145 98 65
2.531967639923096 3.349661350250244 -0.064041137695313 146 97 67
2.550185918807983 -2.393015623092651 -0.022344589233398 189 132 115
2.532871007919312 -2.000680923461914 -0.135782241821289 168 111 91
2.600477695465088 -1.093197345733643 0.399881362915039 164 87 69
2.612039566040039 -1.038347244262695 0.485368728637695 156 78 59
2.610045194625854 -0.464349508285522 0.493627548217773 147 63 39
2.587651729583740 -0.148090124130249 0.325769424438477 145 64 45
2.558540821075439 0.172563195228577 0.071622848510742 156 83 66
2.558991670608521 0.282255351543427 0.051055908203125 151 83 70
2.470569372177124 1.077377796173096 -0.552935600280762 148 99 82
2.475232362747192 1.101716518402100 -0.556521415710449 154 105 88
2.509018659591675 1.468850612640381 -0.317672729492188 153 100 82
2.494281768798828 1.859224557876587 -0.418157577514648 149 93 70
2.516813278198242 2.198901414871216 -0.227380752563477 152 91 70
2.512783288955688 2.680648088455200 -0.252008438110352 152 101 72
2.557394742965698 3.100903272628784 0.058614730834961 155 104 75
2.555359601974487 3.213955163955688 0.049598693847656 149 102 69
2.546208858489990 3.307219028472900 -0.017784118652344 146 99 69
2.579993963241577 -3.132239103317261 0.199428558349609 202 140 123
2.553038120269775 -2.786142826080322 -0.022239685058594 191 134 115
2.543765306472778 -2.621837377548218 -0.084085464477539 192 133 117
2.548536062240601 -2.400717496871948 -0.036918640136719 188 131 114
2.541317701339722 -1.806163787841797 -0.137022018432617 128 67 48
2.536084651947021 -1.665971755981445 -0.167123794555664 181 119 98
2.574519157409668 -1.264771223068237 0.133621215820313 172 95 75
2.600260496139526 -1.112352132797241 0.353965759277344 158 83 64
2.626702785491943 -0.966550290584564 0.533966064453125 166 89 71
2.635437726974487 -0.795273482799530 0.576988220214844 161 80 61
2.599032640457153 -0.365236937999725 0.349786758422852 154 71 49
2.579092979431152 -0.267872989177704 0.166805267333984 156 73 57
2.512925624847412 0.666149616241455 -0.300264358520508 147 95 82
2.509592771530151 0.786536693572998 -0.353246688842773 159 112 96
2.519322395324707 2.134086370468140 -0.262990951538086 152 91 72
2.535299301147461 2.352855443954468 -0.159118652343750 148 91 64
2.531311988830566 2.368605375289917 -0.171819686889648 151 94 67
2.556079149246216 3.292099952697754 0.026182174682617 152 105 75
2.611370086669922 -3.397609710693359 0.393659591674805 202 137 117
2.614886760711670 -3.374078989028931 0.387298583984375 198 133 115
2.558031082153320 -2.952025413513184 -0.013921737670898 186 125 107
2.557249069213867 -2.818786382675171 -0.066202163696289 190 131 115
2.548499584197998 -2.499490976333618 -0.118858337402344 189 132 115
2.547230720520020 -1.994176387786865 -0.136127471923828 167 110 90
2.545069456100464 -1.728107690811157 -0.124105453491211 179 118 99
2.561075925827026 -1.393636703491211 -0.032621383666992 174 98 78
2.637715339660645 -0.922863066196442 0.555326461791992 152 74 55
2.638132572174072 -0.894225537776947 0.578136444091797 160 81 64
2.633611440658569 -0.666195690631866 0.548206329345703 154 72 51
2.629756689071655 -0.571230709552765 0.526941299438477 151 71 48
2.628275156021118 -0.488229572772980 0.513116836547852 150 68 46
2.563649177551270 0.249593630433083 0.014070510864258 150 83 66
2.537255048751831 0.458897083997726 -0.205123901367188 142 89 73
2.518939971923828 0.595993936061859 -0.317316055297852 148 96 82
2.492707014083862 0.974148690700531 -0.553946495056152 156 109 93
2.503817558288574 1.186772227287292 -0.482508659362793 157 109 89
2.517010450363159 1.511988401412964 -0.364944458007813 153 101 80
2.513918638229370 1.612179517745972 -0.367298126220703 153 102 80
2.521988391876221 1.653664350509644 -0.319057464599609 150 98 75
2.528465986251831 1.690540790557861 -0.259155273437500 157 103 79
2.488222599029541 1.870484590530396 -0.527571678161621 160 104 81
2.519792556762695 1.929265975952148 -0.330808639526367 156 100 77
2.527193784713745 2.080332994461060 -0.305971145629883 149 91 69
2.537502050399780 2.313972234725952 -0.203371047973633 155 97 72
2.527931928634644 2.621392726898193 -0.271564483642578 149 96 65
2.523280858993530 2.707686185836792 -0.300420761108398 150 99 71
2.552860021591187 2.881674051284790 -0.117740631103516 147 96 65
2.573430061340332 3.243085384368896 0.061885833740234 157 108 76
2.555342435836792 3.367246150970459 -0.065559387207031 149 98 67
2.625985383987427 -3.467098474502563 0.429061889648438 201 136 114
2.621163606643677 -3.342390775680542 0.382373809814453 198 133 115
2.582176446914673 -3.003379344940186 0.081764221191406 202 141 123
2.564083099365234 -2.723277807235718 -0.056518554687500 189 132 112
2.557980298995972 -2.591987848281860 -0.093860626220703 194 135 119
2.559234380722046 -2.546113967895508 -0.093322753906250 184 127 110
2.555740118026733 -2.217215061187744 -0.115442276000977 176 120 103
2.554641246795654 -2.061997175216675 -0.120475769042969 178 121 102
2.549819231033325 -1.977705717086792 -0.139690399169922 176 119 99
2.550605773925781 -1.957222223281860 -0.150959014892578 163 105 85
2.551876783370972 -1.778188228607178 -0.144823074340820 161 100 81
2.555479526519775 -1.752904653549194 -0.144557952880859 176 118 98
2.595058917999268 -1.123985290527344 0.208547592163086 166 90 72
2.599137783050537 -0.191760957241058 0.198369979858398 150 71 55
2.606979608535767 -0.046558499336243 0.275465011596680 155 76 59
2.579009532928467 0.065701156854630 0.087989807128906 164 88 69
2.540585756301880 0.537328004837036 -0.228179931640625 161 108 92
2.531051874160767 0.622034192085266 -0.300104141235352 157 105 91
2.521565437316895 1.557148456573486 -0.383865356445313 159 108 86
2.518316507339478 1.725025415420532 -0.372892379760742 151 97 71
2.543041944503784 2.207267522811890 -0.245489120483398 161 103 82
2.532770395278931 2.520622253417969 -0.247852325439453 153 98 68
2.569062232971191 -2.907068729400635 -0.053646087646484 200 139 121
2.572720289230347 -2.882224321365356 -0.057723999023438 197 135 120
2.565650224685669 -2.817789793014526 -0.068651199340820 187 128 112
2.566013574600220 -2.685051441192627 -0.068508148193359 194 137 117
2.570075988769531 -2.321923494338989 -0.077701568603516 180 123 106
2.564043045043945 -2.090941667556763 -0.079212188720703 185 128 109
2.607027053833008 -1.054674386978149 0.224889755249023 161 84 66
2.588685512542725 -0.315581798553467 0.078224182128906 158 77 57
2.605029821395874 -0.091587483882904 0.231576919555664 147 68 52
2.571712493896484 0.227460220456123 -0.035366058349609 161 95 79
2.541337251663208 0.515420496463776 -0.226280212402344 158 105 89
2.513496637344360 0.919720172882080 -0.474999427795410 159 110 95
2.506623744964600 1.026021122932434 -0.530151367187500 156 109 93
2.525372982025146 1.376102447509766 -0.374572753906250 164 111 93
2.537139892578125 1.425715684890747 -0.302589416503906 151 98 80
2.533999919891357 1.672801256179810 -0.326045989990234 146 92 68
2.519067049026489 1.699506521224976 -0.409919738769531 156 102 77
2.529664993286133 1.851610422134399 -0.339159011840820 150 92 68
2.536212921142578 1.990719556808472 -0.293857574462891 156 97 75
2.551130771636963 2.389850616455078 -0.205152511596680 152 97 68
2.538435697555542 2.548409938812256 -0.276941299438477 152 97 67
2.562954902648926 2.768996715545654 -0.109916687011719 145 94 67
2.584368467330933 3.054277658462524 0.043079376220703 154 105 75
2.642645359039307 -3.359309673309326 0.454851150512695 201 136 118
2.574059724807739 -2.169714450836182 -0.070924758911133 189 132 115
2.576307773590088 -1.536697149276733 -0.093046188354492 179 113 95
2.580399036407471 -1.327346563339233 -0.033292770385742 170 95 74
2.632150173187256 -0.977993309497833 0.332359313964844 158 81 65
2.648492574691772 -0.840043962001801 0.465234756469727 170 91 74
2.649083137512207 -0.733975470066071 0.498422622680664 158 78 55
2.628867626190186 -0.578795850276947 0.320981979370117 158 80 59
2.606014013290405 -0.193506717681885 0.180271148681641 153 75 60
2.585528612136841 0.318940997123718 -0.027999877929688 152 93 79
2.563982963562012 0.389730334281921 -0.176071166992188 160 104 91
2.545357465744019 0.746111989021301 -0.293228149414063 146 97 82
2.524156332015991 0.946101784706116 -0.478481292724609 156 109 93
2.526326894760132 1.124579310417175 -0.457394599914551 148 99 82
2.534303188323975 1.561781644821167 -0.388500213623047 153 101 79
2.544173479080200 1.942207813262939 -0.274461746215820 157 99 77
2.552805900573730 2.103987932205200 -0.259351730346680 147 89 69
2.556653738021851 2.463907241821289 -0.221136093139648 157 102 72
2.585481405258179 3.007383584976196 -0.007942199707031 161 112 82
2.585536956787109 3.160250663757324 0.017765045166016 153 103 68
2.651254653930664 -3.374708890914917 0.442865371704102 200 135 117
2.620022296905518 -3.084881305694580 0.216386795043945 194 133 112
2.577121257781982 -2.877619504928589 -0.083871841430664 204 142 127
2.572262525558472 -1.682406902313232 -0.163860321044922 187 127 106
2.573394060134888 -1.625836610794067 -0.119821548461914 169 106 84
2.573240756988525 -1.601963281631470 -0.095895767211914 170 105 85
2.598566532135010 -0.254204630851746 0.048776626586914 153 74 57
2.613521099090576 -0.134760081768036 0.153671264648438 163 86 70
2.589364051818848 0.156558156013489 -0.021858215332031 146 74 62
2.550554513931274 0.660138130187988 -0.293804168701172 162 110 96
2.532372951507568 1.067712306976318 -0.464604377746582 148 101 83
2.544494867324829 1.763586044311523 -0.349168777465820 159 103 78
2.562451362609863 2.510714769363403 -0.207670211791992 148 93 63
2.558032035827637 2.721176862716675 -0.267269134521484 149 98 69
2.590150117874146 3.169518232345581 0.012193679809570 150 102 66
2.596710681915283 3.191294908523560 0.007072448730469 152 104 68
2.593709230422974 3.254829883575439 0.024230957031250 156 107 75
2.582329988479614 3.402693271636963 -0.075674057006836 148 97 66
2.587835550308228 3.508981466293335 -0.034368515014648 147 101 68
2.632203340530396 -3.196601152420044 0.235418319702148 203 140 123
2.584770679473877 -1.483469486236572 -0.099096298217773 159 93 75
2.590025663375854 -1.282810926437378 -0.069005966186523 176 101 80
2.604888677597046 -1.179805994033813 0.032217025756836 176 101 80
2.644562959671021 -0.932392776012421 0.317302703857422 160 83 63
2.626889467239380 -0.569112002849579 0.197122573852539 151 73 53
2.616002559661865 -0.215370357036591 0.099431991577148 155 77 61
2.599630594253540 0.121367871761322 -0.002916336059570 146 77 64
2.586307287216187 0.226166039705276 -0.104457855224609 157 94 79
2.592795372009277 0.324586451053619 -0.049051284790039 157 99 87
2.542828321456909 1.100263237953186 -0.441025733947754 161 112 95
2.568685531616211 2.041702747344971 -0.239051818847656 157 96 75
2.567766666412354 2.319873094558716 -0.229482650756836 151 94 67
2.563963413238525 2.576311111450195 -0.259525299072266 151 98 67
2.591989994049072 2.806613206863403 -0.074317932128906 147 96 67
2.581858158111572 2.861974477767944 -0.125312805175781 150 99 68
2.603799819946289 3.112500429153442 0.031337738037109 157 103 74
2.602530956268311 3.136129379272461 0.012359619140625 151 101 67
2.658975601196289 -3.445526123046875 0.415040969848633 201 137 112
2.657407045364380 -3.367187738418579 0.416563034057617 200 133 115
2.592799663543701 -2.553493976593018 -0.112321853637695 193 134 116
2.586752414703369 -2.064989805221558 -0.149297714233398 182 125 106
2.583925724029541 -1.922552347183228 -0.178607940673828 166 108 88
2.581664800643921 -1.772469282150269 -0.162406921386719 167 106 87
2.590893745422363 -1.509538412094116 -0.131412506103516 160 97 79
2.589891195297241 -1.385503768920898 -0.117843627929688 177 104 84
2.602855443954468 -1.204125404357910 -0.028522491455078 169 94 73
2.615050792694092 -0.323068141937256 0.038606643676758 163 82 63
2.644524097442627 -0.003743827342987 0.242465972900391 156 82 63
2.588588476181030 0.245929285883904 -0.098751068115234 156 93 78
2.541422843933105 0.803926706314087 -0.482941627502441 155 108 92
2.550391197204590 1.619833469390869 -0.408647537231445 152 100 76
2.558219194412231 1.685338735580444 -0.345432281494141 159 105 79
2.576600551605225 1.961317539215088 -0.226751327514648 157 99 77
2.575998306274414 1.997649431228638 -0.228565216064453 159 98 77
2.571093797683716 2.592956304550171 -0.250780105590820 157 104 73
2.599677085876465 3.408159732818604 -0.053764343261719 148 97 66
2.648347139358521 -3.091940402984619 0.258493423461914 189 130 110
2.610805988311768 -2.778827905654907 -0.033573150634766 201 144 125
2.607950925827026 -2.633397340774536 -0.059413909912109 198 140 121
2.596930742263794 -2.195590972900391 -0.127227783203125 184 128 111
2.589331865310669 -2.023910999298096 -0.178470611572266 184 127 108
2.592647790908813 -1.717378616333008 -0.149206161499023 197 139 119
2.615761041641235 -0.348078608512878 0.014810562133789 160 79 62
2.616743803024292 -0.311691224575043 0.040502548217773 158 77 60
2.633474588394165 -0.056571662425995 0.166683197021484 166 91 72
2.601349115371704 0.145680874586105 -0.111972808837891 139 71 60
2.546204805374146 0.952674865722656 -0.500506401062012 156 109 93
2.555164337158203 0.981339335441589 -0.442449569702148 155 108 92
2.568709611892700 1.320080280303955 -0.335918426513672 162 109 91
2.565208911895752 1.480819940567017 -0.382078170776367 159 105 82
2.561142206192017 1.538846254348755 -0.411415100097656 156 102 81
2.552021026611328 1.553047418594360 -0.451513290405273 155 103 80
2.580655336380005 2.287155628204346 -0.264759063720703 151 94 69
2.594825983047485 2.444068193435669 -0.138898849487305 155 100 70
2.616936922073364 2.969871759414673 -0.006099700927734 152 103 71
2.618394851684570 3.353538274765015 0.017982482910156 148 99 67
2.613533496856689 3.378437519073486 -0.038692474365234 148 97 66
2.606655836105347 3.467607259750366 -0.075620651245117 150 101 69
2.660697937011719 -3.277095556259155 0.293981552124023 199 132 115
2.603627920150757 -2.527638912200928 -0.130752563476563 193 134 116
2.599113464355469 -2.226953506469727 -0.124624252319336 190 135 115
2.599585294723511 -1.979396581649780 -0.168800354003906 192 134 114
2.596740007400513 -1.847988128662109 -0.167900085449219 186 125 105
2.602035760879517 -1.564038991928101 -0.122520446777344 183 122 103
2.598593235015869 -1.357649564743042 -0.159185409545898 163 91 70
2.603550672531128 -1.275327444076538 -0.120586395263672 169 98 76
2.617489337921143 -1.178972005844116 0.000091552734375 179 104 83
2.629018306732178 -1.018034934997559 0.068431854248047 171 98 81
2.645968198776245 -0.812879145145416 0.181453704833984 153 76 58
2.643042564392090 -0.539292514324188 0.180845260620117 159 82 65
2.623292207717896 -0.393776774406433 0.028396606445313 167 88 71
2.608820199966431 0.111522346735001 -0.135793685913086 156 88 75
2.593889236450195 0.213741064071655 -0.165222167968750 155 92 79
2.602772712707520 0.331636101007462 -0.139303207397461 152 96 83
2.581279754638672 0.600709140300751 -0.298494338989258 162 110 96
2.582573890686035 0.626796543598175 -0.298046112060547 159 107 93
2.583977937698364 0.754531979560852 -0.277286529541016 156 107 92
2.542020559310913 0.873437881469727 -0.602330207824707 159 112 96
2.574186801910400 1.142199873924255 -0.375059127807617 166 115 98
2.578894615173340 1.312074184417725 -0.307792663574219 160 107 89
2.589869976043701 1.820996046066284 -0.258756637573242 151 94 70
2.592321157455444 2.038037776947021 -0.242391586303711 152 91 71
2.586711406707764 2.212418079376221 -0.268692016601563 154 97 77
2.582953691482544 2.233104944229126 -0.263422012329102 148 92 69
2.582713842391968 2.341254711151123 -0.259374618530273 149 93 64
2.631668329238892 2.948195934295654 0.091270446777344 148 97 66
2.624932765960693 3.231620073318481 0.012989044189453 155 106 73
2.632956027984619 3.376619338989258 0.071516036987305 151 102 72
2.680679082870483 -3.403468132019043 0.393247604370117 201 136 114
2.679050207138062 -3.306914091110229 0.360673904418945 197 130 113
2.665448904037476 -3.169944524765015 0.263029098510742 190 127 110
2.620563507080078 -2.856052637100220 -0.050243377685547 193 131 116
2.614925146102905 -2.503768444061279 -0.112628936767578 189 130 112
2.622769832611084 -2.317842721939087 -0.023822784423828 193 136 117
2.617892980575562 -2.086144924163818 -0.102163314819336 183 125 110
2.605711698532104 -1.889216899871826 -0.167661666870117 187 127 102
2.603955268859863 -1.799798727035522 -0.172002792358398 171 113 93
2.613851785659790 -1.624997138977051 -0.134620666503906 176 115 94
2.615385293960571 -1.606110334396362 -0.127496719360352 174 113 94
2.608461618423462 -1.517553329467773 -0.154348373413086 159 97 82
2.607299327850342 -1.239861488342285 -0.150905609130859 176 105 83
2.634765386581421 -1.054010152816772 0.055727005004883 159 87 72
2.649214744567871 -0.524330854415894 0.138702392578125 157 80 64
2.653187990188599 -0.030591487884521 0.189046859741211 161 89 71
2.594271421432495 0.374034225940704 -0.259071350097656 158 102 89
2.592201948165894 0.501879632472992 -0.254638671875000 160 107 91
2.595585346221924 1.259585499763489 -0.262725830078125 167 113 92
2.586818456649780 1.416319370269775 -0.340440750122070 162 106 88
2.593998193740845 2.169390439987183 -0.285209655761719 160 103 84
2.592801570892334 2.507013559341431 -0.244607925415039 150 95 65
2.584043025970459 2.547737360000610 -0.331430435180664 148 95 64
2.628627300262451 3.079365730285645 0.017652511596680 153 103 76
2.628047227859497 3.185366153717041 -0.002397537231445 151 101 66
2.687452554702759 -3.448372602462769 0.403087615966797 200 135 113
2.685837507247925 -3.344395160675049 0.392721176147461 202 137 119
2.620566129684448 -2.390296220779419 -0.099512100219727 192 137 117
2.619444608688354 -2.249626636505127 -0.113346099853516 185 128 109
2.616423606872559 -2.013802766799927 -0.151435852050781 184 127 108
2.613609075546265 -1.981111764907837 -0.144090652465820 186 128 108
2.635907649993896 -0.882139742374420 0.009469985961914 165 88 68
2.651557922363281 -0.753538787364960 0.094890594482422 171 94 78
2.634748697280884 -0.276584088802338 -0.012008666992188 154 75 61
2.615137577056885 0.096251368522644 -0.153627395629883 154 87 71
2.610712289810181 0.218276277184486 -0.196737289428711 158 98 84
2.606332063674927 0.260269850492477 -0.196687698364258 161 103 89
2.597329139709473 0.532419204711914 -0.271202087402344 159 106 90
2.592513561248779 0.667157769203186 -0.295541763305664 162 113 99
2.580746889114380 1.059987545013428 -0.381704330444336 156 107 90
2.581526279449463 1.656642913818359 -0.373460769653320 163 109 85
2.600629329681396 1.718964099884033 -0.283515930175781 149 96 72
2.602400302886963 1.767047643661499 -0.248147964477539 151 98 74
2.602041482925415 2.095340967178345 -0.280591964721680 144 87 67
2.597516536712646 2.236822128295898 -0.267313003540039 151 95 72
2.625156879425049 2.432856321334839 -0.085794448852539 153 98 70
2.649459838867188 2.849718093872070 0.080066680908203 145 91 63
2.628388166427612 3.478599309921265 -0.085031509399414 145 98 68
2.693950891494751 -3.294017791748047 0.362344741821289 203 136 119
2.627823352813721 -2.584684133529663 -0.116559982299805 191 132 114
2.620086908340454 -2.440207719802856 -0.164802551269531 194 137 118
2.624775409698486 -2.414141654968262 -0.135070800781250 185 130 110
2.629384756088257 -2.188238620758057 -0.098255157470703 178 121 102
2.618457317352295 -1.775659799575806 -0.174163818359375 180 123 104
2.617637395858765 -1.715125083923340 -0.167375564575195 187 130 110
2.621143102645874 -1.660758256912231 -0.169349670410156 170 114 91
2.615311622619629 -1.346791744232178 -0.190671920776367 171 103 82
2.650162696838379 -1.011374235153198 0.052736282348633 169 97 82
2.653124570846558 -0.772800505161285 0.064098358154297 155 78 62
2.662487506866455 -0.547287046909332 0.142169952392578 160 84 66
2.661513566970825 -0.487292706966400 0.136596679687500 158 82 66
2.638602018356323 -0.305662512779236 -0.007398605346680 152 75 59
2.604942798614502 0.437386453151703 -0.269981384277344 154 101 85
2.600309848785400 1.209641575813293 -0.321840286254883 155 102 83
2.596233367919922 1.362112522125244 -0.380153656005859 150 97 79
2.591419219970703 1.621449708938599 -0.376436233520508 157 102 81
2.609861135482788 1.863511323928833 -0.230497360229492 157 99 77
2.611834287643433 1.892999887466431 -0.212762832641602 151 93 73
2.609564065933228 2.033927917480469 -0.238086700439453 149 91 71
2.637266397476196 2.787747859954834 -0.027315139770508 151 97 69
2.670048713684082 -2.983300209045410 0.132047653198242 195 134 116
2.637437820434570 -2.877441167831421 -0.078609466552734 193 131 116
2.653974294662476 -2.778464078903198 0.012432098388672 191 134 115
2.656568527221680 -2.675222635269165 0.038646697998047 188 129 111
2.627007007598877 -1.204967021942139 -0.166095733642578 165 94 72
2.646228551864624 -1.084512472152710 -0.014411926269531 175 105 86
2.651380300521851 -0.861074149608612 0.008895874023438 170 93 73
2.663017749786377 -0.810903131961823 0.096929550170898 168 91 73
2.653713226318359 -0.700003564357758 0.026657104492188 168 91 73
2.643340826034546 -0.351483166217804 -0.026613235473633 158 84 65
2.652368068695068 -0.198009788990021 0.025165557861328 169 94 73
2.661287069320679 -0.134872794151306 0.052654266357422 157 86 66
2.659696578979492 -0.049542069435120 0.095094680786133 157 89 68
2.667140722274780 0.008976310491562 0.129119873046875 162 95 76
2.628063917160034 0.145367950201035 -0.191684722900391 159 96 81
2.625857353210449 0.322555303573608 -0.196891784667969 158 102 89
2.595984935760498 1.042043089866638 -0.430027961730957 152 103 86
2.604668378829956 1.197121977806091 -0.348552703857422 156 103 85
2.601176977157593 1.399884462356567 -0.370841979980469 164 108 91
2.595477581024170 1.587343215942383 -0.404047012329102 159 107 83
2.623253583908081 2.515506267547607 -0.193161010742188 146 91 61
2.659262180328369 2.940852880477905 0.082845687866211 148 97 66
2.711492538452148 -3.333666086196899 0.378717422485352 201 136 118
2.694670438766479 -3.088454246520996 0.252115249633789 198 137 118
2.642992973327637 -2.120662689208984 -0.115072250366211 173 116 99
2.639870405197144 -2.058685064315796 -0.133554458618164 183 125 111
2.634919881820679 -1.952123641967773 -0.160333633422852 188 130 108
2.625049591064453 -1.906950950622559 -0.222681045532227 186 128 104
2.634834051132202 -1.533806800842285 -0.179073333740234 154 95 78
2.630595207214355 -1.438312768936157 -0.171241760253906 148 81 64
2.629666090011597 -1.284066915512085 -0.179069519042969 174 108 86
2.645407915115356 -1.165514707565308 -0.101186752319336 158 87 67
2.656644821166992 -1.051147937774658 -0.030908584594727 171 102 86
2.661405801773071 -0.842579901218414 0.020572662353516 163 88 69
2.670961380004883 -0.647365152835846 0.118797302246094 161 84 65
2.653678655624390 -0.242384612560272 -0.045658111572266 162 86 70
2.630081653594971 0.133125305175781 -0.192237854003906 164 102 87
2.612243652343750 1.463308811187744 -0.333211898803711 145 90 69
2.608084678649902 1.662633895874023 -0.366651535034180 159 105 81
2.630805015563965 1.913138389587402 -0.216196060180664 154 97 77
2.623415708541870 2.299045085906982 -0.242528915405273 151 94 65
2.641839742660522 2.383773803710938 -0.117273330688477 160 100 72
2.660888910293579 2.839600801467896 0.027269363403320 145 91 63
2.651746988296509 -2.176586627960205 -0.095542907714844 183 126 107
2.636766195297241 -1.750104665756226 -0.201677322387695 169 114 93
2.642314434051514 -1.699735641479492 -0.178495407104492 192 137 116
2.636399269104004 -1.644196033477783 -0.193170547485352 177 121 99
2.649299383163452 -1.140995025634766 -0.105552673339844 173 103 83
2.657830953598022 -0.864549696445465 -0.050008773803711 169 95 74
2.657651901245117 -0.418120682239532 -0.064308166503906 145 72 56
2.668234109878540 -0.092222452163696 0.050043106079102 166 98 79
2.636760950088501 0.186187624931335 -0.214977264404297 163 100 85
2.634607791900635 0.212154150009155 -0.224109649658203 154 92 79
2.621750354766846 0.284854292869568 -0.334575653076172 156 98 84
2.624596595764160 0.398145139217377 -0.313829421997070 153 100 86
2.579008102416992 0.887560188770294 -0.633814811706543 156 107 90
2.614604949951172 1.610179185867310 -0.367259979248047 154 102 80
2.635609388351440 2.026731729507446 -0.224222183227539 155 98 78
2.630775213241577 2.219670772552490 -0.261621475219727 158 102 79
2.630351305007935 2.270097017288208 -0.253383636474609 153 97 71
2.639963388442993 2.483947515487671 -0.166097640991211 156 100 73
2.625584840774536 2.604685783386230 -0.278984069824219 148 97 66
2.671110630035400 3.116806745529175 0.032068252563477 150 100 73
2.657301425933838 3.136383771896362 -0.026662826538086 150 101 69
2.709274768829346 -3.195540189743042 0.259836196899414 205 142 124
2.708318948745728 -3.158810853958130 0.264074325561523 195 133 113
2.705439805984497 -3.056715965270996 0.234333038330078 189 128 110
2.670773744583130 -2.381945371627808 -0.002716064453125 188 131 112
2.638056993484497 -1.315982580184937 -0.230451583862305 164 98 79
2.640684366226196 -1.287361145019531 -0.205463409423828 169 104 84
2.644362688064575 -1.219225406646729 -0.205106735229492 171 103 82
2.667022466659546 -0.903583347797394 -0.044162750244141 165 92 73
2.679654836654663 -0.503215491771698 0.026603698730469 157 86 70
2.674793720245361 -0.146589517593384 0.017324447631836 160 91 70
2.628029346466064 0.582743346691132 -0.288902282714844 156 105 88
2.635642766952515 0.694735765457153 -0.247299194335938 154 105 90
2.586630344390869 0.860428333282471 -0.643265724182129 152 101 84
2.620360374450684 1.564092159271240 -0.359140396118164 170 118 96
2.635277986526489 1.770643711090088 -0.260421752929688 162 108 84
2.630673170089722 2.184289932250977 -0.298467636108398 155 98 78
2.672150373458862 2.806093692779541 -0.021833419799805 153 99 71
2.676545858383179 3.377746343612671 -0.003181457519531 150 104 71
2.665687322616577 3.425861597061157 -0.037014007568359 149 103 70
2.718384027481079 -3.236349344253540 0.264295578002930 184 119 101
2.680482864379883 -2.641607761383057 -0.009412765502930 194 133 115
2.669205665588379 -2.212691068649292 -0.077186584472656 192 135 115
2.654173135757446 -2.028342247009277 -0.175878524780273 189 132 115
2.650607585906982 -1.583171129226685 -0.186090469360352 180 122 103
2.667822599411011 -0.920049846172333 -0.079217910766602 169 98 79
2.667343616485596 -0.717155396938324 -0.099596023559570 156 83 64
2.678203821182251 -0.488314270973206 0.013383865356445 162 90 75
2.652511596679688 0.102143794298172 -0.218498229980469 157 96 78
2.633023977279663 0.306255757808685 -0.360300064086914 159 102 85
2.641382455825806 0.734151721000671 -0.288835525512695 155 106 92
2.594098091125488 0.886239290237427 -0.623371124267578 154 103 85
2.633017539978027 1.252947330474854 -0.335025787353516 159 106 88
2.634436368942261 1.329348921775818 -0.339262008666992 161 108 90
2.641249656677246 1.818626880645752 -0.246700286865234 156 100 77
2.644389629364014 1.839530706405640 -0.253679275512695 160 104 81
2.635852813720703 2.130855798721313 -0.300260543823242 155 98 78
2.640814065933228 2.215769767761230 -0.269226074218750 151 95 72
2.668445348739624 2.512520790100098 -0.098136901855469 157 102 73
2.659066438674927 2.554644346237183 -0.152776718139648 151 96 66
2.691612720489502 2.886565685272217 0.080028533935547 146 92 63
2.664377927780151 3.191037893295288 -0.088314056396484 152 103 71
2.689746856689453 -2.850514173507690 0.003854751586914 189 130 112
2.695593595504761 -2.591635942459106 0.043432235717773 200 139 120
2.690870046615601 -2.575609207153320 0.036525726318359 201 140 121
2.683094501495361 -2.500457525253296 -0.038091659545898 197 139 119
2.655918598175049 -1.941795349121094 -0.220977783203125 184 128 106
2.655600070953369 -1.897963047027588 -0.223892211914063 182 124 100
2.655429363250732 -1.871849775314331 -0.225727081298828 187 130 103
2.659386873245239 -1.847654104232788 -0.223947525024414 181 123 100
2.662946224212646 -1.691382884979248 -0.181158065795898 177 125 102
2.660341262817383 -1.632657766342163 -0.186576843261719 171 116 95
2.655952453613281 -1.402625799179077 -0.235233306884766 175 108 91
2.668342113494873 -1.107239723205566 -0.141511917114258 166 100 78
2.672374486923218 -0.977590978145599 -0.092321395874023 168 99 84
2.665223836898804 -0.666403949260712 -0.134771347045898 161 88 69
2.676544904708862 -0.456971406936646 -0.049192428588867 166 97 81
2.670247077941895 -0.303319454193115 -0.092773437500000 158 89 73
2.677784204483032 -0.207973957061768 -0.080476760864258 159 88 70
2.683355808258057 -0.146985173225403 0.002536773681641 158 92 70
2.689203977584839 0.014319092035294 0.023921966552734 159 97 76
2.652626276016235 0.143071711063385 -0.224802017211914 158 99 81
2.652658939361572 0.232394233345985 -0.246488571166992 155 96 80
2.640323638916016 0.280830860137939 -0.338024139404297 161 102 85
2.657935619354248 0.671522736549377 -0.183568954467773 159 110 95
2.615270137786865 0.849917650222778 -0.548116683959961 155 104 87
2.639902353286743 0.998788356781006 -0.349540710449219 155 103 89
2.632599115371704 1.057321310043335 -0.380987167358398 160 109 92
2.644050836563110 1.716496944427490 -0.303506851196289 161 107 81
2.659459590911865 1.955119132995605 -0.216852188110352 162 107 87
2.668905019760132 2.422432661056519 -0.125104904174805 157 100 71
2.691216945648193 3.102171659469604 0.033416748046875 145 95 68
2.743770837783813 -3.368381500244141 0.390220642089844 184 117 98
2.700866937637329 -2.950600624084473 0.074245452880859 196 133 116
2.694895029067993 -2.434902429580688 -0.013109207153320 187 130 111
2.663857460021973 -1.248435020446777 -0.240341186523438 167 103 83
2.665951967239380 -1.200868129730225 -0.188806533813477 173 108 87
2.668452024459839 -1.121536970138550 -0.146158218383789 169 103 81
2.677444458007813 -1.031049728393555 -0.139429092407227 165 99 81
2.685976982116699 -0.990526139736176 -0.092269897460938 169 104 86
2.680596828460693 -0.892242133617401 -0.096883773803711 167 96 76
2.681317567825317 -0.379959583282471 -0.110202789306641 153 86 69
2.671434402465820 0.045877188444138 -0.158184051513672 161 100 81
2.657714366912842 0.247238665819168 -0.249261856079102 156 97 81
2.647768497467041 0.381068617105484 -0.337820053100586 155 99 84
2.646947860717773 0.455178111791611 -0.315809249877930 166 110 95
2.646463394165039 0.534774422645569 -0.327934265136719 159 106 90
2.642699956893921 1.123953580856323 -0.391321182250977 156 105 86
2.645383596420288 1.286109447479248 -0.361383438110352 157 104 86
2.651126384735107 1.421840786933899 -0.328824996948242 161 106 88
2.663149833679199 1.934950828552246 -0.219934463500977 157 100 80
2.660815238952637 2.047942161560059 -0.237421035766602 165 110 90
2.656525850296021 2.085961580276489 -0.290912628173828 160 105 84
2.660859823226929 2.277407884597778 -0.234596252441406 149 92 63
2.693625926971436 3.376533746719360 -0.017566680908203 149 103 70
2.667682409286499 3.481351375579834 -0.205471038818359 148 103 74
2.647736787796021 3.529278993606567 -0.322187423706055 150 103 75
2.745718479156494 -3.305170536041260 0.333005905151367 200 133 114
2.701927900314331 -2.601765394210815 0.026952743530273 188 127 108
2.699259519577026 -2.440995693206787 -0.005271911621094 190 133 114
2.694857835769653 -2.296089649200439 -0.051300048828125 185 130 109
2.688731431961060 -2.179607629776001 -0.082927703857422 194 137 118
2.671360969543457 -1.935024023056030 -0.202907562255859 189 133 110
2.674192428588867 -1.477718830108643 -0.220659255981445 152 90 79
2.683499336242676 -0.848801553249359 -0.157823562622070 166 99 78
2.687118768692017 -0.268552243709564 -0.114452362060547 160 93 77
2.654057264328003 0.716187417507172 -0.323865890502930 156 108 94
2.643054246902466 1.046947479248047 -0.400554656982422 159 106 90
2.649749517440796 1.089396715164185 -0.381019592285156 159 106 90
2.653865814208984 1.371310710906982 -0.345842361450195 155 103 85
2.652000665664673 1.496155977249146 -0.340642929077148 151 99 78
2.652370929718018 1.654141902923584 -0.365880966186523 156 104 80
2.665923357009888 2.000887155532837 -0.219232559204102 153 98 78
2.658622026443481 2.185992240905762 -0.301483154296875 154 98 75
2.678617238998413 2.660435914993286 -0.151454925537109 159 105 77
2.713494300842285 2.879335403442383 0.075969696044922 153 99 71
2.709722518920898 3.061288118362427 0.075159072875977 153 106 78
2.692732810974121 3.204411268234253 -0.072637557983398 154 105 75
2.700606822967529 3.317187547683716 -0.014299392700195 145 99 65
2.670703411102295 3.522444486618042 -0.203676223754883 146 99 71
2.742208003997803 -3.144824028015137 0.221382141113281 223 158 138
2.680492162704468 -2.035511255264282 -0.206081390380859 180 123 106
2.676812410354614 -1.498350620269775 -0.221889495849609 151 92 79
2.682028770446777 -1.083642005920410 -0.152809143066406 178 113 93
2.697035789489746 -0.922629892826080 -0.124284744262695 166 99 80
2.686387062072754 -0.741476237773895 -0.157449722290039 168 100 79
2.707584142684937 -0.527247548103333 -0.038654327392578 160 95 77
2.698012590408325 -0.182666003704071 -0.065210342407227 162 95 76
2.705215930938721 -0.131675839424133 -0.028867721557617 160 95 73
2.704056739807129 -0.093250751495361 -0.024927139282227 163 101 78
2.671648740768433 0.975772380828857 -0.279624938964844 151 98 82
2.680687665939331 2.261608839035034 -0.214836120605469 154 98 71
2.690076351165771 2.350599050521851 -0.128427505493164 157 97 69
2.721953868865967 2.923946619033813 0.116405487060547 155 102 73
2.721753835678101 2.972408056259155 0.103927612304688 157 106 77
2.700853347778320 3.231161117553711 -0.063278198242188 153 104 72
2.701977252960205 3.244390010833740 -0.054466247558594 147 100 68
2.710102558135986 3.282713890075684 -0.006698608398438 150 104 71
2.707755327224731 3.360677957534790 0.012014389038086 145 99 66
2.769734621047974 -3.447047710418701 0.368814468383789 201 134 115
2.722821474075317 -2.566795587539673 0.066328048706055 198 137 117
2.701461791992188 -2.138678073883057 -0.116685867309570 190 133 114
2.685864925384521 -1.756425857543945 -0.214567184448242 170 116 93
2.680766105651855 -1.426794767379761 -0.226062774658203 181 114 98
2.674582958221436 -1.367566347122192 -0.275926589965820 165 103 82
2.676278114318848 -1.308808088302612 -0.269718170166016 149 90 70
2.688949346542358 -0.423624813556671 -0.182477951049805 162 97 79
2.707995176315308 -0.050890564918518 -0.050182342529297 142 80 57
2.679805994033813 0.106203198432922 -0.264041900634766 163 102 83
2.679404735565186 0.217750474810600 -0.267322540283203 157 98 80
2.671626806259155 0.634472846984863 -0.284191131591797 167 116 99
2.657042026519775 1.129797458648682 -0.407590866088867 162 109 91
2.659183263778687 1.213791608810425 -0.405847549438477 173 122 105
2.667706251144409 1.547713041305542 -0.350383758544922 150 102 82
2.683053970336914 1.883516311645508 -0.251224517822266 163 108 87
2.687718152999878 1.928180456161499 -0.229536056518555 155 100 79
2.682467222213745 1.959348201751709 -0.241258621215820 157 105 84
2.705668449401855 2.770467042922974 -0.076097488403320 154 100 72
2.740819454193115 3.053881645202637 0.172067642211914 155 108 78
2.702359199523926 3.470697879791260 -0.099523544311523 146 101 72
2.731753349304199 3.610755443572998 0.121986389160156 143 96 69
2.712379693984985 -2.250679492950439 -0.083454132080078 195 141 117
2.697105646133423 -1.992246150970459 -0.157503128051758 177 120 101
2.695248603820801 -1.629585266113281 -0.209163665771484 186 137 115
2.681174516677856 -1.208627939224243 -0.297327041625977 174 112 91
2.689809799194336 -1.025081872940063 -0.185781478881836 170 107 89
2.701554059982300 -0.902347147464752 -0.132673263549805 172 106 86
2.701489210128784 -0.720194280147552 -0.190519332885742 168 100 79
2.706688880920410 -0.206021189689636 -0.094890594482422 170 105 87
2.693197011947632 0.060992538928986 -0.212474822998047 160 99 80
2.670231819152832 0.552529275417328 -0.370363235473633 165 112 96
2.698948621749878 0.868167519569397 -0.178421020507813 161 108 91
2.678135156631470 1.305600285530090 -0.338697433471680 151 102 85
2.681436061859131 1.375702619552612 -0.311819076538086 153 104 84
2.669146537780762 1.668180465698242 -0.363777160644531 155 103 77
2.685901880264282 1.811745882034302 -0.268037796020508 166 108 86
2.677859306335449 2.092509984970093 -0.303800582885742 158 103 82
2.679211139678955 2.113006830215454 -0.302789688110352 152 97 76
